# .PCD v0.7 - Point Cloud Data file format
VERSION 0.7
FIELDS x y z rgb
SIZE 4 4 4 4
TYPE F F F F
COUNT 1 1 1 1
WIDTH 1047
HEIGHT 1
VIEWPOINT 0 0 0 1 0 0 0
POINTS 1047
DATA ascii
3.5726001 1.5306681 0.21483175 9.1136823e-39
3.6331196 1.5251275 0.22393008 7.175772e-39
3.6679292 1.5244145 0.21877411 1.0119885e-38
3.8024964 1.5197023 0.23258966 4.5010477e-39
3.8837349 1.5175326 0.20729172 1.0402567e-38
3.934058 1.516028 0.24133348 7.9929322e-39
4.0463171 1.5366029 0.24465567 9.3733303e-39
3.1741128 1.5854214 0.22081798 6.8916363e-39
3.2146063 1.5867052 0.23128447 7.3529718e-39
3.2717242 1.5801547 0.21663758 6.8041308e-39
3.3206928 1.567178 0.23158863 9.4806529e-39
3.3708639 1.5613332 0.23269172 7.083219e-39
3.4351833 1.5565881 0.22828698 8.4665248e-39
3.4885917 1.5670625 0.24172637 7.8063773e-39
3.5913694 1.55502 0.24165781 4.7758312e-39
3.6190195 1.5525583 0.24690288 5.4190159e-39
3.1499493 1.6369655 0.20106721 2.9401834e-39
3.1642048 1.6215305 0.2324948 4.5006638e-39
3.2067599 1.7223825 0.22404428 4.1329617e-39
3.360357 -2.7532685 0.26214182 6.6337343e-39
3.5045087 -2.7522979 0.25771725 8.7538484e-39
3.5606987 -2.7774351 0.27296785 7.6457128e-39
3.6006849 -2.773524 0.26813906 7.8322663e-39
3.0704143 -2.706696 0.29541159 7.0921915e-39
3.1133912 -2.7004342 0.27329183 8.1074127e-39
3.1623697 -2.7117858 0.27420989 7.737198e-39
3.2158954 -2.7176628 0.27325979 7.5531725e-39
3.2744389 -2.7267861 0.27686143 7.2776618e-39
3.319046 -2.7264605 0.27592334 6.3553552e-39
3.3558712 -2.7114275 0.26693708 4.8831048e-39
3.436429 -2.7103651 0.26214525 4.4149337e-39
3.4901164 -2.7146451 0.25699985 9.578968e-39
3.52665 -2.7183611 0.25778246 9.3977969e-39
3.5702546 -2.7267778 0.26458433 8.7538709e-39
3.6189737 -2.7350528 0.27618748 7.3705833e-39
2.8751049 -2.6535182 0.27157819 6.9999931e-39
2.9129903 -2.6514306 0.26772827 6.9081604e-39
2.9817002 -2.669944 0.27076471 7.4598965e-39
3.0197954 -2.6716924 0.28351554 7.6442877e-39
3.0741763 -2.6757815 0.28004801 8.1063393e-39
3.1136718 -2.6764565 0.25734496 7.5535284e-39
3.1766908 -2.6739681 0.2829895 7.8290335e-39
3.2290683 -2.6674771 0.28726649 7.2762227e-39
3.2847857 -2.6811547 0.26973194 7.0918272e-39
3.3162661 -2.6694973 0.28678685 4.6965485e-39
3.3552027 -2.6631923 0.28936654 3.6827553e-39
3.477006 -2.6617591 0.26376659 8.9321146e-39
3.5294056 -2.6613657 0.2537064 8.6609522e-39
3.5678444 -2.6625659 0.26386824 8.1081259e-39
3.6380918 -2.6567776 0.28339216 8.2003229e-39
3.6742754 -2.6789641 0.27245128 7.5521075e-39
2.5954609 -2.6115665 0.27802268 8.2914494e-39
2.6321383 -2.6053009 0.25368923 8.1081441e-39
2.6963539 -2.6002705 0.2517764 8.8446358e-39
2.7259927 -2.6110938 0.27460647 6.8181312e-39
2.771136 -2.6164176 0.26366547 7.1840186e-39
2.8179533 -2.6126807 0.27617985 7.7368337e-39
2.8664677 -2.6059332 0.28429213 7.8275972e-39
2.9132037 -2.6224482 0.27082521 8.1052645e-39
2.967334 -2.6264236 0.27864322 7.9208718e-39
3.0326397 -2.6268022 0.28807339 8.1048931e-39
3.0857 -2.625778 0.2970503 7.828316e-39
3.1101866 -2.6431227 0.27130386 8.1056148e-39
3.232549 -2.6267531 0.29945329 5.7099886e-39
3.2724338 -2.6320066 0.29074591 4.8805824e-39
3.3061781 -2.6459303 0.28462124 4.4206791e-39
3.3688779 -2.6136529 0.28374618 3.4054678e-39
3.4195054 -2.6297233 0.27003402 3.863576e-39
3.5163512 -2.6291299 0.2841481 6.3560544e-39
3.5632339 -2.6206994 0.26400536 8.9368034e-39
3.6179218 -2.6183219 0.26519895 8.3854485e-39
3.6690631 -2.6281364 0.27977884 9.7637152e-39
3.7267892 -2.6442108 0.28128248 1.0227566e-38
2.4579375 -2.5561271 0.2610724 8.2932515e-39
2.5177462 -2.5636961 0.27244383 9.0290186e-39
2.5709128 -2.5664339 0.26223609 9.0279466e-39
2.6332431 -2.5734684 0.26344818 9.1201395e-39
2.6889174 -2.5890262 0.25820738 8.6613305e-39
2.7355525 -2.5835514 0.28268132 5.986553e-39
2.7730875 -2.5825601 0.27302614 7.4591664e-39
2.8224506 -2.5890486 0.26482463 8.1041855e-39
2.853642 -2.5653121 0.28642949 7.7350526e-39
2.9064693 -2.587903 0.25573951 7.9190725e-39
3.1921165 -2.5909812 0.29970944 5.1586126e-39
3.2359471 -2.5875244 0.2927767 4.5114622e-39
3.2749701 -2.5726979 0.28889868 3.4998172e-39
3.3172941 -2.5759299 0.27347714 3.774609e-39
3.3993552 -2.5757055 0.27828646 3.9593576e-39
3.4027193 -2.5622883 0.29366589 3.0370356e-39
3.4725764 -2.5567305 0.2781899 5.0574151e-39
3.5415552 -2.5866611 0.27826223 8.9346356e-39
3.5853934 -2.5789106 0.27914059 9.1208401e-39
3.6196289 -2.5764999 0.2736145 1.0870409e-38
3.6692739 -2.5808854 0.27610996 1.2254784e-38
3.7175956 -2.5820279 0.26428702 1.0411956e-38
2.142046 -2.503546 0.2875061 8.2914466e-39
2.2189484 -2.5042129 0.27931017 8.476205e-39
2.2697923 -2.5080869 0.28045964 8.7527961e-39
2.3257236 -2.5188653 0.27290839 9.3041734e-39
2.374579 -2.5213506 0.27068904 9.2134071e-39
2.4256177 -2.5242684 0.27296603 9.0290214e-39
2.4750178 -2.5334091 0.27453005 9.2126952e-39
2.5429077 -2.5358427 0.26626909 9.120494e-39
2.7718859 -2.5424211 0.2951462 7.1800726e-39
3.2883451 -2.5295849 0.29394096 3.8675291e-39
3.3738358 -2.5314453 0.27797154 4.1430244e-39
3.4243751 -2.530108 0.29773304 3.5905723e-39
3.5432508 -2.5184393 0.29627085 8.5629678e-39
3.6371944 -2.5259688 0.27157193 1.206967e-38
3.6817212 -2.5214965 0.27533254 1.2993076e-38
3.7363009 -2.5365167 0.26384729 1.1426472e-38
1.9467473 -2.4562867 0.29333627 9.1219485e-39
2.019938 -2.4690485 0.26206952 7.186199e-39
2.074492 -2.4683394 0.27822319 7.5546228e-39
2.1269438 -2.4682028 0.29290551 9.1201339e-39
2.1720042 -2.4836307 0.28328472 9.2123365e-39
2.2231326 -2.4878273 0.2870287 9.3970921e-39
2.2815094 -2.4827135 0.28122082 9.3967292e-39
2.3348799 -2.4891267 0.28045338 9.3045405e-39
2.3825827 -2.4966741 0.27927482 9.3038273e-39
2.4126139 -2.4996827 0.27317423 9.487843e-39
3.1895783 -2.4710069 0.29666099 5.0667631e-39
3.2288146 -2.4623873 0.29892278 5.4348366e-39
3.3231733 -2.4793165 0.28660539 3.9600751e-39
3.3527164 -2.4915562 0.28778815 4.2348515e-39
3.4206109 -2.4700866 0.28553671 4.0515616e-39
3.6420648 -2.470587 0.26211435 1.3268584e-38
3.7250805 -2.481776 0.27094746 1.4652239e-38
1.7292547 -2.4008124 0.25940007 1.1241726e-38
1.7831956 -2.4117906 0.272219 1.1148815e-38
1.8316752 -2.4195638 0.26272374 1.0964065e-38
1.8965118 -2.4328969 0.25624776 1.0411621e-38
1.9338659 -2.4274337 0.25799158 7.0000225e-39
1.9730564 -2.4440196 0.2794131 9.5811274e-39
2.0068583 -2.4333377 0.25803852 7.3698826e-39
2.0623281 -2.442606 0.26970261 8.0159821e-39
3.2753785 -2.4385753 0.29346186 4.8809552e-39
3.3335445 -2.425281 0.27907762 4.4192525e-39
3.3841851 -2.4336343 0.28473157 4.4188924e-39
3.422749 -2.416538 0.29065013 4.5125146e-39
3.5928905 -2.4329281 0.29091844 1.3914642e-38
3.6240666 -2.4177845 0.28047746 1.4374211e-38
3.6702461 -2.4260814 0.29285958 1.5109614e-38
3.7171042 -2.4264677 0.28661302 1.7510313e-38
3.7773223 -2.4346328 0.26108044 1.7049709e-38
3.8112597 -2.4122777 0.27112848 1.7879097e-38
1.4451802 -2.3511636 0.28181195 1.6588367e-38
1.4884951 -2.3522792 0.27760798 1.5388733e-38
1.5218859 -2.3623624 0.28061002 1.4928838e-38
1.5751569 -2.3716116 0.27654636 1.3454066e-38
1.6328691 -2.3785064 0.27340603 1.2807976e-38
1.6760807 -2.3844345 0.26806003 1.2347003e-38
1.7172983 -2.3865457 0.26838809 1.253103e-38
3.3181214 -2.3520069 0.29349631 5.2515412e-39
3.3648648 -2.3882051 0.29212016 4.6050885e-39
3.4003108 -2.355736 0.29630196 4.7876946e-39
3.6278677 -2.3750515 0.28038913 1.5110361e-38
3.6674576 -2.3632314 0.27023086 1.8986168e-38
3.7328598 -2.3690042 0.2887671 1.8895059e-38
3.7931688 -2.3546808 0.25670886 1.8524832e-38
1.2770963 -2.3002405 0.29672778 2.3047471e-38
1.3278892 -2.3160625 0.29239479 2.1663093e-38
1.3735582 -2.3278489 0.28486371 1.9909577e-38
1.4072833 -2.3320754 0.29089862 1.7970942e-38
1.5791783 -2.3438473 0.2789773 1.4465713e-38
3.2919288 -2.308604 0.2990841 6.5419072e-39
3.3466501 -2.3176517 0.2825945 4.9742088e-39
3.3754652 -2.3166149 0.29654312 4.8831202e-39
3.4279821 -2.330637 0.29366702 4.3281093e-39
3.4702611 -2.3191466 0.29114005 9.3005594e-39
3.6728718 -2.3301058 0.26633936 1.9354598e-38
3.7316093 -2.3189914 0.26906094 1.9263485e-38
3.7725937 -2.3153536 0.26691914 1.8432997e-38
1.2437483 -2.2728705 0.28402698 2.341769e-38
3.3665481 -2.2753046 0.28071749 4.7873036e-39
3.4178109 -2.2877445 0.29080144 5.9808105e-39
3.4675918 -2.2609019 0.28341743 1.5665277e-38
3.5237911 -2.2790985 0.29701459 1.6496126e-38
3.5505917 -2.2948885 0.29635376 1.5572044e-38
3.6363468 -2.2756433 0.27210069 1.852377e-38
3.6782162 -2.2737274 0.28400257 1.852376e-38
3.7270801 -2.26878 0.27773517 1.944751e-38
3.8152225 -2.2872517 0.27861324 1.7695799e-38
3.9070003 -2.2515249 0.26418766 1.4560046e-38
3.4196022 -2.2043455 0.29564661 1.0135e-38
3.647428 -2.2299376 0.28296191 1.8147088e-38
3.6851606 -2.2196844 0.28724343 1.9815214e-38
3.7230401 -2.2276793 0.29294169 2.0181467e-38
3.7600594 -2.2280436 0.27252129 2.0369813e-38
3.8261676 -2.228755 0.27968147 1.4007634e-38
3.8640001 -2.2272401 0.29072002 1.8245409e-38
3.9520004 -2.2367918 0.27726731 1.732883e-38
3.3127394 -2.1696856 0.29929492 7.6414543e-39
3.3515222 -2.1934736 0.28536522 5.7067782e-39
3.6544266 -2.1959419 0.25894266 2.0185435e-38
3.7210491 -2.1781976 0.28738782 1.9816284e-38
3.7702997 -2.1630952 0.27889493 2.0185793e-38
3.8804979 -2.1925929 0.2817359 1.8525195e-38
3.9070003 -2.1919897 0.29395527 1.586271e-38
3.730901 -2.1293807 0.28213742 2.0186133e-38
3.7811973 -2.1280668 0.29245639 2.0185788e-38
3.8290489 -2.1285355 0.27875349 1.107105e-38
3.8842196 -2.104965 0.28522319 3.4991095e-39
3.9519606 -2.1188903 0.26179093 2.4842289e-39
3.737617 -2.0938506 0.26532555 2.0921549e-38
3.7680569 -2.079221 0.26127109 1.3451602e-38
3.8802814 -2.0638356 0.26295221 5.1546442e-39
3.9118905 -2.0780079 0.27921903 5.1489115e-39
3.9673336 -2.0638542 0.27830413 1.1504199e-38
3.8265049 -2.0138063 0.27750343 4.9670243e-39
3.8795786 -2.0264957 0.28565833 1.1598926e-38
3.9294355 -2.0412805 0.26831618 1.1965538e-38
3.9806366 -2.0241618 0.26366299 1.2334313e-38
4.0450001 -2.0212715 0.27351907 1.1784368e-38
3.8778179 -1.9713553 0.27867585 1.3255531e-38
3.901509 -1.9756637 0.2743879 1.3071145e-38
3.9552865 -1.9759058 0.26765656 1.2333945e-38
4.0450001 -1.9750428 0.27351907 1.2519427e-38
3.6813293 -1.9323595 0.26682609 7.9147327e-39
3.8266039 -1.9178575 0.27121422 1.3161924e-38
3.8637083 -1.9254007 0.28721267 1.3530683e-38
3.9126821 -1.9265925 0.27455446 1.3808342e-38
3.9905584 -1.9208517 0.27903801 1.2794571e-38
4.0321932 -1.9065399 0.28218579 1.2058441e-38
3.6803255 -1.8744224 0.27124828 1.1229796e-38
3.7619882 -1.8975993 0.28824174 1.2793535e-38
3.8354583 -1.8662139 0.26340407 1.3806918e-38
3.878118 -1.8668159 0.25850499 1.4083512e-38
3.9128745 -1.8794402 0.26647162 1.4084583e-38
3.9951596 -1.875427 0.278382 1.3347369e-38
4.0450001 -1.8671762 0.27351907 1.2886405e-38
3.8801079 -1.8250157 0.27344567 1.4176408e-38
3.9335027 -1.8117081 0.26936203 1.4452643e-38
3.9735146 -1.8263004 0.25765407 1.4175342e-38
4.0245748 -1.8343213 0.27750397 1.2794561e-38
4.0930004 -1.8264297 0.27676478 1.2979334e-38
3.6861012 -1.798659 0.26032692 1.1966987e-38
3.7074111 -1.7814422 0.26786357 1.1966981e-38
3.7716162 -1.7593464 0.27788815 1.1966987e-38
3.8702738 -1.7800903 0.26895911 1.4358668e-38
3.9051847 -1.7596378 0.26794913 1.4543387e-38
3.9728017 -1.776522 0.27926543 1.3991298e-38
4.0294104 -1.7840961 0.27637881 1.3070071e-38
4.0782738 -1.7803582 0.26667437 1.2519063e-38
3.7491808 -1.71577 0.27309877 1.1966625e-38
3.7546554 -1.7330242 0.2724534 1.2151379e-38
3.8174632 -1.7067244 0.27900004 1.2150318e-38
3.8744452 -1.7232343 0.26873368 1.3991308e-38
3.9186592 -1.7087581 0.27002743 1.472777e-38
3.9634807 -1.7302507 0.27018675 1.4360076e-38
4.0341063 -1.7286112 0.27674496 1.3439202e-38
4.081193 -1.7168261 0.26267928 1.2610185e-38
3.7847736 -1.6753726 0.25782511 1.1690394e-38
3.8159223 -1.6673347 0.27950001 1.1966265e-38
3.8970656 -1.6602362 0.29960895 1.4727767e-38
3.9312408 -1.669083 0.26757407 1.4820687e-38
3.9846287 -1.6755314 0.27463344 1.4728865e-38
4.036232 -1.670712 0.27236307 1.3347736e-38
4.0760922 -1.6627556 0.29282731 1.4361137e-38
3.7830939 -1.6379616 0.25827464 1.1965197e-38
3.8277581 -1.6155441 0.26528066 1.2426879e-38
3.9249606 -1.6280888 0.25795373 1.5004368e-38
3.970747 -1.6338614 0.26336762 1.4453707e-38
4.0303102 -1.6267997 0.26855382 1.426824e-38
3.7916007 -1.5735291 0.26470596 1.2887844e-38
3.8407898 -1.5675412 0.28111136 1.334739e-38
3.8829858 -1.5544196 0.28432873 1.2519806e-38
3.9283075 -1.5854172 0.28289843 1.4820343e-38
3.9838369 -1.5822245 0.28820923 1.5005816e-38
4.0379896 -1.5827299 0.27787575 1.4360442e-38
3.7902191 -1.5346286 0.26492602 1.2887491e-38
3.8234904 -1.5103632 0.26893672 1.288893e-38
3.8826702 -1.5342318 0.27222756 1.4084236e-38
3.9379015 -1.5282999 0.28268364 1.5005082e-38
3.9877424 -1.5246818 0.26849392 1.4452278e-38
4.0327215 -1.5142521 0.28323919 1.4451915e-38
3.7836335 -1.4500164 0.25049695 1.2981112e-38
3.8411181 -1.4914773 0.28057092 1.2519425e-38
3.886385 -1.4816653 0.27498549 1.3716532e-38
3.9292374 -1.4618808 0.2829099 1.3807271e-38
3.9752259 -1.4728967 0.263475 1.4913246e-38
4.0356312 -1.4798305 0.27142131 1.399202e-38
4.0739546 -1.4633896 0.28742874 1.4819615e-38
3.8719599 -1.4309311 0.28024194 1.3992387e-38
3.9152491 -1.4248824 0.27079013 1.3991312e-38
3.9787803 -1.4221566 0.27430159 1.5189833e-38
4.0337815 -1.427599 0.26820967 1.4637016e-38
4.069828 -1.4171667 0.27721781 1.4819978e-38
3.782485 -1.3856534 0.25045824 1.3255895e-38
3.8855011 -1.37386 0.26706061 1.2795296e-38
3.9334567 -1.3802691 0.28637305 1.4268262e-38
3.9706051 -1.3712097 0.27405629 1.5189485e-38
4.030623 -1.3787241 0.27152252 1.4729235e-38
4.0778689 -1.3789594 0.27235571 1.4635247e-38
3.8967772 -1.3276637 0.25201866 1.2887844e-38
3.9396791 -1.3285738 0.28218636 1.3071176e-38
3.9712586 -1.3340099 0.27688408 1.4912533e-38
4.0337834 -1.3305953 0.28654641 1.4821408e-38
4.0573406 -1.3359355 0.29292965 1.4821418e-38
4.1210585 -1.3384409 0.27761206 1.4452281e-38
3.8756843 -1.2698977 0.25276119 1.2980393e-38
3.9198627 -1.2728081 0.27303487 1.2703813e-38
3.9672451 -1.2788497 0.27561778 1.4912893e-38
4.033042 -1.2733896 0.2792908 1.5006523e-38
4.0730791 -1.2847651 0.27379715 1.5281314e-38
4.1340375 -1.2853594 0.26504433 1.4911462e-38
3.9134965 -1.2335759 0.25727814 1.2796007e-38
3.9783468 -1.2359582 0.27386725 1.4821062e-38
4.0301733 -1.2221534 0.27533835 1.5282745e-38
4.0750923 -1.2203901 0.2784602 1.5097273e-38
4.1036429 -1.2372578 0.28562835 1.5280231e-38
4.1622343 -1.2313294 0.26463354 1.4544492e-38
3.8762395 -1.1929445 0.27633387 1.3624699e-38
3.9178774 -1.1913673 0.25580895 1.2888206e-38
3.9805009 -1.1801901 0.27212411 1.4637745e-38
4.0209446 -1.168523 0.28290072 1.5006165e-38
4.0762281 -1.1847204 0.27278727 1.5466065e-38
4.1233959 -1.1690274 0.27171171 1.5005091e-38
4.169632 -1.1912307 0.27264863 1.4636313e-38
3.895273 -1.1351579 0.28532204 1.3624693e-38
3.9791939 -1.124934 0.26828223 1.4545551e-38
4.0244169 -1.1317242 0.27965385 1.5741565e-38
4.0754952 -1.1086047 0.29416019 1.5373879e-38
4.1060638 -1.1244904 0.27693695 1.5373508e-38
3.8942654 -1.0877159 0.26156071 1.3625044e-38
3.9135623 -1.0698686 0.25649622 1.2520144e-38
3.991482 -1.0725226 0.27246931 1.3072952e-38
4.030086 -1.0832125 0.27215877 1.5650815e-38
4.0965238 -1.0743042 0.27631715 1.7316505e-38
4.1239853 -1.0671523 0.28715581 2.0095386e-38
4.1784005 -1.0615202 0.2630648 1.4564787e-38
4.2101579 -1.068168 0.27609938 1.4653723e-38
4.2980585 -1.0652018 0.27946413 5.0513783e-39
3.9324913 -1.027535 0.26192173 1.4642107e-38
3.9714043 -1.0245299 0.27962327 1.574703e-38
4.0272198 -1.02981 0.27370909 1.8329941e-38
4.0706568 -1.0305516 0.27282342 1.8445229e-38
4.1282935 -1.0227693 0.28101677 1.1139419e-38
4.1869802 -1.0425364 0.28194547 1.3716935e-38
4.2227616 -1.0197808 0.28108412 1.113724e-38
4.3475361 -1.0457745 0.25208145 2.4849646e-39
3.9481778 -0.9988783 0.26083121 1.7793751e-38
4.001071 -0.95978338 0.29389247 9.756109e-39
4.074759 -0.97969562 0.282579 1.242725e-38
4.1368814 -0.98522043 0.27696899 1.242724e-38
4.166564 -0.97421718 0.26276404 1.0954648e-38
4.2145414 -0.96841735 0.28166908 1.3163359e-38
4.2964764 -0.97053105 0.29518595 5.0599402e-39
4.0193963 -0.90576488 0.25939122 1.2061667e-38
4.07306 -0.93111265 0.27064699 1.2705256e-38
4.1268702 -0.92624611 0.27889144 1.1689316e-38
4.1707888 -0.9336096 0.27689132 1.3348832e-38
4.2102218 -0.92159331 0.27466652 1.4176415e-38
4.3455606 -0.92600465 0.27596325 4.4210602e-39
4.0703721 -0.87702119 0.27445036 1.3071512e-38
4.1281428 -0.87138194 0.28313521 1.3071144e-38
4.1846976 -0.88200206 0.26902723 1.47303e-38
4.2268176 -0.87049055 0.26891667 1.5096928e-38
4.3448477 -0.8860873 0.27593926 4.5132699e-39
4.0899525 -0.83247304 0.27518836 1.2612339e-38
4.1244011 -0.82601154 0.28212541 1.5558601e-38
4.1784639 -0.83037567 0.28373736 1.4454077e-38
4.2159586 -0.81029081 0.27475268 1.5373857e-38
4.2760725 -0.82847548 0.27906615 1.3532861e-38
4.3438702 -0.82220209 0.29985455 9.0264921e-39
4.0672479 -0.78580678 0.28019571 1.3164433e-38
4.1198597 -0.77301627 0.2789481 1.5650793e-38
4.174304 -0.78062254 0.27278227 1.546605e-38
4.2367544 -0.76545155 0.27311075 1.528095e-38
4.2626133 -0.78132677 0.27086538 1.4912523e-38
4.4470272 -0.77638847 0.2933577 8.1978202e-39
4.5006471 -0.75261939 0.29827607 7.9219424e-39
4.0845156 -0.72941917 0.26934555 1.2888923e-38
4.1217656 -0.72816753 0.27280337 1.5559326e-38
4.1732111 -0.72309238 0.29096347 1.5283838e-38
4.2364407 -0.72501934 0.26732844 1.4819629e-38
4.2746773 -0.74811268 0.26524186 1.4637025e-38
4.6133499 -0.73737675 0.29158726 7.3673561e-39
4.6709447 -0.71211547 0.29664919 7.0914741e-39
3.4262567 -0.67400742 0.26696587 6.454689e-39
3.4551976 -0.67999059 0.29406092 7.6413884e-39
4.0904317 -0.68279707 0.2776165 1.2888572e-38
4.1274137 -0.68160331 0.27563402 1.5743012e-38
4.1906004 -0.67145324 0.280635 1.4639204e-38
4.2260709 -0.66785717 0.27107286 1.5282403e-38
4.6703305 -0.67767525 0.29662848 8.1059791e-39
4.7297893 -0.65137166 0.28441375 1.195707e-39
3.4622467 -0.62457299 0.28180209 6.8116502e-39
4.1318417 -0.62936652 0.27716962 1.4638109e-38
4.1849742 -0.62831086 0.27703798 1.5558628e-38
4.2348566 -0.63619584 0.28388608 1.509693e-38
4.8543029 -0.63247383 0.25901365 3.7692042e-39
4.0801563 -0.56628871 0.29934934 1.2336097e-38
4.1312323 -0.57494235 0.27813262 1.5098358e-38
4.1658044 -0.5727343 0.27091154 1.4637749e-38
4.2526641 -0.58821696 0.28122914 1.4819997e-38
4.7898531 -0.55368352 0.25417152 6.901301e-39
4.8535852 -0.57867366 0.29483575 7.2726045e-39
3.4781423 -0.54285896 0.28664353 2.4856975e-39
3.5197983 -0.53152162 0.2680409 2.3045488e-39
4.1406641 -0.52530152 0.2826061 1.4821785e-38
4.1787834 -0.5194931 0.27417281 1.500545e-38
4.2240539 -0.5454039 0.28956223 1.4913979e-38
4.2797532 -0.53007323 0.26289618 1.5004012e-38
4.789341 -0.51830119 0.27183753 7.9132796e-39
3.5631735 -0.49173373 0.27775702 2.0286906e-39
4.1420002 -0.47497907 0.28007808 1.4178212e-38
4.1816263 -0.46982074 0.27670953 1.5282024e-38
4.2105732 -0.47754273 0.27693248 1.5834481e-38
4.2730365 -0.47937584 0.2667222 1.5280976e-38
3.4452186 -0.44000921 0.28359851 8.2867508e-39
3.4706459 -0.4394359 0.26034629 6.992803e-39
3.5759454 -0.43023077 0.27584565 1.3818653e-39
4.1420002 -0.42764193 0.28007808 1.3994562e-38
4.1849761 -0.41861197 0.28033149 1.5559336e-38
4.2149749 -0.43511751 0.26141253 1.2611969e-38
4.2817745 -0.41605148 0.27609146 1.5097279e-38
4.3209033 -0.44289964 0.25577044 1.4912161e-38
4.6660285 -0.43659353 0.29648355 8.1905797e-39
3.2710469 -0.38451815 0.26616144 3.5884353e-39
3.6201248 -0.37364239 0.2817567 1.3822282e-39
4.1356888 -0.35878736 0.28118664 8.2835517e-39
4.1867723 -0.38685358 0.2720477 1.500653e-38
4.2236171 -0.36638981 0.28565845 1.5558621e-38
4.2681932 -0.37828022 0.26566133 1.5096558e-38
4.3131199 -0.37613165 0.27356875 1.472887e-38
4.6065617 -0.36340672 0.27436087 7.9129236e-39
3.2245595 -0.3473601 0.27620849 1.6577291e-39
3.6497066 -0.32019341 0.26074511 1.565909e-39
4.1420002 -0.31718859 0.28007808 1.3717232e-38
4.1854043 -0.32420489 0.28844306 1.5467168e-38
4.2147899 -0.31390592 0.27095041 1.5282756e-38
4.2789235 -0.31897175 0.27325395 1.454413e-38
4.3269258 -0.34298187 0.26504183 1.4450862e-38
4.5487313 -0.32561022 0.25278142 8.1912986e-39
2.9052656 -0.26593709 0.27038082 5.8882575e-39
3.2105806 -0.29340386 0.27517566 1.5662593e-39
3.6806169 -0.28906485 0.26032558 3.5912939e-39
3.7126663 -0.27450919 0.28114012 3.1227796e-39
4.1857843 -0.27233332 0.27717158 1.4731025e-38
4.2148409 -0.25913465 0.28226808 1.5097654e-38
4.269978 -0.27702281 0.28438851 1.4635959e-38
4.4920726 -0.27212459 0.29798722 9.3891229e-39
2.8301101 -0.20680332 0.28897271 2.3953109e-39
2.8574777 -0.24384917 0.28455558 2.8548415e-39
3.2198162 -0.24168368 0.27747819 7.3721471e-40
3.6788099 -0.23818725 0.26061344 8.1135419e-39
3.7108421 -0.22314429 0.28143066 1.3910702e-38
4.1827836 -0.22484879 0.27751338 1.4637742e-38
4.223568 -0.2169275 0.2747581 1.5096216e-38
4.2670412 -0.22008629 0.28430694 1.4911817e-38
4.3110666 -0.20820552 0.25561047 1.5186969e-38
4.3839068 -0.21772328 0.27201712 8.6526355e-39
2.8300529 -0.15243907 0.2834141 1.9354216e-39
3.2097206 -0.18841143 0.27700725 1.1978341e-39
3.7598779 -0.19988777 0.27434844 9.7673446e-39
4.1157575 -0.18861769 0.27185977 5.1431619e-39
4.1834998 -0.17662439 0.26124239 1.4729575e-38
4.222074 -0.17157114 0.27990615 1.2979318e-38
4.264648 -0.16589187 0.27768186 1.5280587e-38
4.3319993 -0.16757603 0.27151501 8.8341499e-39
2.8627577 -0.1033963 0.28799701 1.7510275e-39
3.2034988 -0.13561864 0.27708608 1.1981943e-39
4.1420002 -0.11206096 0.28007808 1.3349908e-38
4.1955509 -0.13375759 0.27152565 1.1967694e-38
4.227674 -0.12396447 0.27244526 1.2979311e-38
4.2748933 -0.11542726 0.27628592 1.472923e-38
4.324482 -0.11798672 0.27093086 1.4451196e-38
3.0269988 -0.060284358 0.28246737 4.7876791e-39
3.0640998 -0.080530204 0.26797995 2.1179814e-39
3.2082691 -0.074185468 0.27186966 1.7506548e-39
4.1920004 -0.08093144 0.26748955 1.3166253e-38
4.2325368 -0.076542318 0.27500436 1.3993463e-38
4.2742829 -0.06478484 0.27972722 1.1047195e-38
4.3052917 -0.067761019 0.27502894 1.3991681e-38
2.9116974 -0.048039772 0.27458847 6.4466456e-40
3.0547011 -0.0074455868 0.29115343 4.8809678e-39
3.1006882 -2.1165237e-05 0.27489612 3.8696969e-39
3.2776268 -0.019237334 0.26833424 2.5800623e-39
4.2274232 -0.041615292 0.280554 1.1786889e-38
4.2525935 -0.028459545 0.26093036 7.4645404e-39
4.3081527 -0.033033654 0.27790087 1.1232682e-38
2.9112594 0.026214037 0.28100765 1.8428602e-39
3.9070003 0.010814287 0.29395527 4.3310408e-39
4.0450001 0.043604761 0.27351907 9.1972193e-39
4.0589981 0.040702727 0.26021647 2.5814959e-39
4.1333394 0.026699137 0.29559091 3.8639306e-39
4.1698351 0.027621098 0.2752814 6.1644885e-39
4.2147465 0.028420966 0.28093007 4.6987359e-39
4.2992086 0.0026775384 0.25884697 3.9564807e-39
1.8729845 0.087303422 0.2515673 1.5857326e-38
2.9222708 0.07660754 0.28380254 3.1321655e-39
2.9555073 0.096603356 0.28987584 1.7532122e-39
4.090878 0.072450429 0.27321741 1.6226763e-38
4.1343641 0.072472669 0.27420169 1.5763635e-38
4.1608 0.079080828 0.28209749 2.1112784e-38
4.2227764 0.063044831 0.27794164 1.271829e-38
4.2520103 0.078877419 0.28439814 2.1565863e-38
1.9774052 0.12662892 0.28223553 2.4860646e-39
2.0250092 0.12630451 0.26373672 1.337914e-38
4.0930004 0.12261811 0.27676478 1.7789778e-38
4.1391096 0.12197959 0.27491555 2.0648933e-38
4.1753001 0.12390576 0.27681813 1.880466e-38
4.2316966 0.11673397 0.28069222 2.1291068e-38
4.2786636 0.13778393 0.25994781 1.9814854e-38
1.9427713 0.15427026 0.26647264 1.4740693e-39
3.9225276 0.19113916 0.27780703 1.5406413e-38
4.0211868 0.19807298 0.28480184 2.0937763e-38
4.0930004 0.16939525 0.27676478 1.8250759e-38
4.1417832 0.17313755 0.26547509 1.7881262e-38
4.172935 0.17632194 0.27681771 2.0002845e-38
4.2349334 0.16637756 0.2781958 2.120031e-38
4.2527933 0.155643 0.27591911 2.0275481e-38
1.9359388 0.22160281 0.2652787 2.2116483e-39
3.9331708 0.2248086 0.29572815 1.0398262e-38
3.970283 0.21354599 0.28187352 9.0326676e-39
4.0269899 0.21962823 0.2793766 1.3643506e-38
4.0774279 0.21703391 0.26102439 1.4198124e-38
4.1164999 0.21470806 0.27694458 1.9268894e-38
4.1904039 0.24255644 0.28419477 1.4942128e-38
4.233305 0.22254965 0.26930562 1.724381e-38
1.9486549 0.25069174 0.28665006 2.5800763e-39
1.9811509 0.28172684 0.27332783 8.2014538e-39
3.6427584 0.25513846 0.28067562 1.4550357e-38
3.6617043 0.26401117 0.2859852 1.6966852e-38
3.7534244 0.2602357 0.29544863 1.4569049e-38
4.0450001 0.29015714 0.27351907 1.392477e-38
4.0887156 0.26234883 0.28409278 1.8161773e-38
4.1885443 0.27228683 0.27581692 1.9451819e-38
4.2208648 0.28641394 0.2643522 1.9173443e-38
4.2698245 0.27890679 0.27853349 1.8159296e-38
2.0254171 0.34459814 0.29290015 6.4394149e-40
2.06866 0.33024344 0.27668592 1.0044991e-38
4.0450001 0.3209762 0.27351907 1.4657652e-38
4.1828766 0.33861816 0.2678346 1.584325e-38
4.2256103 0.32225209 0.27427578 1.4941809e-38
4.2774715 0.34263402 0.26756209 1.6488607e-38
1.9944924 0.37140954 0.27643439 1.1045735e-39
4.0450001 0.38261425 0.27351907 1.4285621e-38
4.0930004 0.35650384 0.27676478 1.4193423e-38
4.1877275 0.36414137 0.28050423 1.7789782e-38
4.2190056 0.37362647 0.26526955 1.6775279e-38
4.2528381 0.36616346 0.28104314 1.7698313e-38
1.9742749 0.40634423 0.29858118 1.9347027e-39
4.0450001 0.42884287 0.27351907 1.5669279e-38
4.1826129 0.42418513 0.26473886 1.6867473e-38
4.2167926 0.4235293 0.27900463 1.8709229e-38
4.2638931 0.41532108 0.26961207 1.7323775e-38
1.9477841 0.4840675 0.26033282 9.2016544e-40
1.9675232 0.45291215 0.29755694 3.5023928e-39
4.0450001 0.47507143 0.27351907 1.548453e-38
4.1757035 0.4814454 0.2721194 2.092479e-38
4.2217207 0.47712263 0.27375954 1.9818451e-38
4.2652617 0.47270072 0.27999508 2.0646413e-38
4.0450001 0.52129996 0.27351907 1.4563294e-38
4.1738353 0.52219802 0.25504175 1.5483831e-38
4.2195482 0.5252533 0.27406579 1.6591962e-38
4.2726555 0.53311557 0.27810535 1.7970232e-38
4.0450001 0.58293808 0.27351907 1.1613396e-38
4.1673279 0.56731796 0.2708272 1.1243178e-38
4.21559 0.57018179 0.27169472 1.2625752e-38
4.2823038 0.57334942 0.27333799 1.529691e-38
4.3063092 0.59773117 0.26627141 1.2347009e-38
3.9980001 0.62133336 0.27034095 1.1518669e-38
4.1351848 0.63241661 0.26135731 1.3916135e-38
4.1747675 0.61403495 0.27296183 1.1790239e-38
4.2155843 0.62104475 0.27211416 1.3268601e-38
4.2789793 0.63478482 0.27647218 1.3636311e-38
2.3336003 0.68524837 0.28220725 3.5045129e-39
2.4099774 0.69281477 0.29901311 1.1046872e-38
2.4589915 0.67814064 0.2853179 1.0881553e-38
4.1717019 0.66286701 0.26776001 1.3640616e-38
4.2158995 0.68375027 0.27984288 1.437819e-38
4.2773089 0.67334557 0.26346079 1.5110709e-38
4.3059545 0.68685699 0.28280997 1.5755725e-38
2.1670001 0.73713052 0.29512477 1.4726119e-39
2.2225001 0.7275005 0.28148904 1.1049084e-39
2.2766666 0.7102235 0.28699493 1.9357537e-39
2.3221717 0.72933209 0.26965469 5.7942991e-39
2.3888648 0.70716274 0.29707342 1.8705588e-38
3.9980001 0.71271622 0.27034095 1.2253705e-38
4.1838579 0.71754551 0.26664951 1.2714344e-38
4.2270985 0.71658355 0.27661899 1.2901613e-38
4.273509 0.72761369 0.28102219 1.4096565e-38
2.1400001 0.78450477 0.29144764 1.1045413e-39
2.1670001 0.76191396 0.28958574 1.104907e-39
2.237 0.75392854 0.27057049 1.2889381e-39
2.2863855 0.78301626 0.25215712 6.2653484e-39
2.3104272 0.78168905 0.2598393 6.0787949e-39
2.3555639 0.77547741 0.27249497 7.9169454e-39
4.1874337 0.76811856 0.26929381 1.4838799e-38
4.2204494 0.77238506 0.27930647 1.5019959e-38
4.272212 0.78146219 0.28104624 1.5206152e-38
4.324409 0.79552919 0.25876802 1.5107853e-38
2.2430043 0.82564604 0.26391208 5.2533713e-39
2.2782845 0.81721777 0.26721144 6.3564678e-39
2.3149278 0.80892563 0.27248719 6.9078325e-39
3.9750001 0.81426954 0.26878572 1.1610125e-38
4.2199221 0.813519 0.26514566 1.5944432e-38
4.2592945 0.82185966 0.28192377 1.6218512e-38
4.3281074 0.84949571 0.26804739 1.7229431e-38
2.1140001 0.85495996 0.28790668 1.1045441e-39
2.2436852 0.87401199 0.25624728 6.7266895e-39
2.2677784 0.86600298 0.2760776 5.8040185e-39
3.9980001 0.86502099 0.27034095 1.4188019e-38
4.2729659 0.86559492 0.27081299 1.7050069e-38
4.334084 0.89327955 0.27807432 1.8521619e-38
2.2389929 0.92245251 0.27078381 7.0007568e-39
2.2665689 0.91365844 0.28901067 7.6457619e-39
3.9520001 0.92982662 0.26723048 1.2813332e-38
4.2713356 0.91622382 0.27883759 1.7417411e-38
4.3128104 0.91392207 0.26253101 1.6676601e-38
2.2425451 0.9703005 0.27221492 6.5422996e-39
2.2599733 0.97592527 0.27746674 7.2798548e-39
3.8210001 0.99940675 0.2729286 1.2399667e-38
3.8640001 0.98172003 0.26128 1.7333829e-38
3.9070003 0.96337825 0.26418766 1.1608718e-38
4.272871 0.97150439 0.26752922 1.6403618e-38
4.311523 0.96319085 0.27039152 1.6496174e-38
2.2497032 1.0253577 0.27585548 5.8061681e-39
2.2614138 1.0167223 0.27362651 6.2660728e-39
3.7790003 1.0167191 0.28432477 1.1499553e-38
3.8210001 1.0285192 0.2583724 1.2512998e-38
4.2649937 1.0329463 0.2594178 1.7789429e-38
4.317071 1.0203207 0.2707442 1.8063141e-38
2.2692962 1.072251 0.26599196 3.9633429e-39
4.3198781 1.0672904 0.26929536 1.7509974e-38
2.2799745 1.1187849 0.27053446 3.5020004e-39
4.2247596 1.1272347 0.27263623 1.6415158e-38
4.264277 1.1350619 0.25393617 1.8070345e-38
4.3184204 1.1114542 0.2675145 1.8434078e-38
4.3797274 1.1438681 0.27311862 1.8433724e-38
2.2892997 1.1664647 0.28633854 5.4355947e-39
4.1420002 1.150263 0.28007808 1.3826459e-38
4.2860351 1.1722418 0.25632882 1.0491575e-38
4.3213387 1.167273 0.27553573 1.3449062e-38
4.3362942 1.2230374 0.26275566 1.5390901e-38
4.3714895 1.2111285 0.27324694 1.3265728e-38
4.3347411 1.2794508 0.27327162 1.6958583e-38
4.3784065 1.2639399 0.27435082 1.5759326e-38
4.4217434 1.2502118 0.26347455 1.6036272e-38
3.7380002 1.3469602 0.25276002 1.0599256e-38
3.7790003 1.3334353 0.25553241 1.4557463e-38
3.8640001 1.335 0.26128 1.1049739e-38
3.9520001 1.3363181 0.26723048 7.8982562e-39
4.0930004 1.3232317 0.27676478 1.1241016e-38
4.3293734 1.3005903 0.25584954 1.7786188e-38
4.3819132 1.3185407 0.27713323 1.6589804e-38
4.4199929 1.3340136 0.27300501 1.7234459e-38
4.4770122 1.3071011 0.2869848 1.8156058e-38
3.4399998 1.3845111 0.27629206 9.7532839e-39
3.4750001 1.3814049 0.26145241 2.0208265e-39
3.6980002 1.3602401 0.25005525 2.4800096e-39
3.7790003 1.376624 0.28432477 6.8930656e-39
4.0930004 1.3544165 0.27676478 1.0411968e-38
4.3348484 1.3510606 0.25625199 1.0329146e-38
4.3838596 1.369249 0.28534606 1.4655856e-38
4.4246464 1.3792559 0.27467951 1.4100522e-38
4.4692426 1.3683225 0.29985648 1.4567997e-38
2.8690002 1.4386829 0.28143525 6.6136271e-39
2.9756668 1.4409002 0.28436351 4.3170502e-39
3.0370004 1.4406742 0.2825121 8.4622018e-39
3.1010001 1.4405267 0.26875335 6.3373835e-39
3.2259998 1.4348382 0.28363243 8.1024198e-39
3.2770002 1.4249686 0.29649052 1.4191182e-38
3.3196669 1.4272189 0.2834619 6.2524046e-39
3.3730001 1.4166335 0.2537781 7.9014736e-39
3.4173336 1.418458 0.27441397 8.9361181e-39
4.0644846 1.4050429 0.29510522 9.1943382e-39
4.1650057 1.4123102 0.28398556 7.6299216e-39
4.2255945 1.4212463 0.29385221 8.923875e-39
4.2895298 1.4312781 0.27397203 9.4856766e-39
4.323041 1.4150352 0.27847773 9.8508676e-39
4.3648911 1.4363979 0.26759216 1.1515429e-38
4.4276547 1.4361213 0.28348362 1.2430536e-38
2.8930001 1.4731363 0.28378952 2.6657559e-39
2.9420002 1.4540192 0.27738857 6.8887804e-39
3.0730002 1.4622335 0.25462002 5.786009e-39
3.1860001 1.4569715 0.27612001 4.9606162e-39
3.2460001 1.4605258 0.26895431 8.1769689e-39
3.5820816 1.4726697 0.25586453 4.7758508e-39
3.6335387 1.4715867 0.26108247 2.3881951e-39
3.6622093 1.4964975 0.25770634 4.7762235e-39
3.7728796 1.4794573 0.25407141 3.2146333e-39
4.4673328 1.4815001 0.28851157 1.1055534e-38
2.8930001 1.5392621 0.28378952 4.1329617e-39
2.9295001 1.5257225 0.27621001 3.3982777e-39
3.1555171 1.528893 0.2706193 5.787081e-39
3.2902529 1.5204381 0.26051837 9.0013192e-39
3.3721459 1.5232655 0.26167101 6.7047227e-39
3.4159451 1.5441217 0.28207502 5.8785564e-39
3.4855514 1.5381207 0.25724286 8.8180293e-39
3.5301621 1.5180533 0.27324975 3.7656533e-39
3.5613914 1.5261431 0.25764573 6.7965974e-39
3.6111164 1.5148798 0.26927665 9.4799635e-39
3.8157682 1.5200081 0.26270622 5.0520831e-39
3.8742518 1.5076635 0.25766957 6.2484319e-39
2.9420002 1.5660955 0.26618096 3.765977e-39
3.1460078 1.5662856 0.27041623 6.7965582e-39
3.1718507 1.5761802 0.28696913 6.0618714e-39
3.2250164 1.5816509 0.27329475 6.064028e-39
3.2920246 1.5785527 0.27293926 7.7156446e-39
3.3226681 1.5753584 0.272136 6.3391856e-39
3.3770399 1.5670038 0.27138388 6.5214048e-39
3.422267 1.5613142 0.26576218 5.9704003e-39
3.4889538 1.5670069 0.2627061 9.1860958e-39
3.5506916 1.5540372 0.2552219 6.7972785e-39
3.6535778 1.5505493 0.28699109 1.8371611e-39
3.1718757 1.6245118 0.28007489 5.6023324e-39
3.2144783 1.6142851 0.25189748 7.352613e-39
3.1869757 1.6684813 0.28287983 5.5104941e-39
3.2076278 1.6909181 0.26934654 3.1234971e-39
3.1795316 1.706605 0.29721436 3.031656e-39
3.3632059 -2.752167 0.30255234 5.8957895e-39
3.1858308 -2.7071049 0.31009269 6.1720401e-39
3.2168841 -2.7258577 0.30082887 7.1829508e-39
3.2715113 -2.7303777 0.30241352 6.2624407e-39
3.6306679 -2.7087724 0.30431813 7.3701853e-39
2.8788123 -2.6522098 0.31952393 6.2616994e-39
2.9316611 -2.6539109 0.32925934 7.0903867e-39
2.9737473 -2.6719444 0.32095349 6.6312134e-39
3.0420547 -2.687644 0.31678486 7.0911167e-39
3.0772707 -2.6912117 0.30853009 8.0152016e-39
3.1116035 -2.6849947 0.30713028 7.3684071e-39
3.1703007 -2.677716 0.31300274 6.8163165e-39
3.2166767 -2.6917868 0.31754908 5.8018072e-39
3.2737126 -2.6675792 0.31309131 4.9738669e-39
3.3477423 -2.6592467 0.30475318 2.8544422e-39
2.6842012 -2.6079962 0.33080691 8.2911033e-39
2.7238269 -2.6177497 0.32486326 7.4663494e-39
2.824234 -2.6236684 0.30469915 6.9971036e-39
2.8690205 -2.6128414 0.32287124 6.9049136e-39
2.9296966 -2.611733 0.32859895 7.458093e-39
2.9819162 -2.6258414 0.31262735 7.7364721e-39
3.0252378 -2.6223619 0.31934202 7.1825781e-39
3.0767567 -2.6283712 0.3265413 5.8936413e-39
3.1381712 -2.6344841 0.31246462 6.8152403e-39
3.169476 -2.6122763 0.31347483 5.8025359e-39
3.2239938 -2.6239967 0.30937219 4.1440978e-39
3.3060188 -2.6158991 0.30758852 3.9615142e-39
3.6008389 -2.6388729 0.31928301 2.2108888e-39
3.7151556 -2.6107306 0.31962416 1.2068211e-38
2.4988329 -2.5697479 0.31054419 7.9226809e-39
2.5171056 -2.5529299 0.32220969 9.1197681e-39
2.5701766 -2.5791779 0.31914151 8.2910949e-39
2.6304326 -2.5754294 0.32746887 8.1989006e-39
2.6779759 -2.5798438 0.32096913 7.4620573e-39
2.7945232 -2.5919783 0.30507374 6.9960344e-39
2.8328938 -2.5764618 0.30232716 7.5502914e-39
2.8700616 -2.5902569 0.3252258 7.5502914e-39
2.916501 -2.5804801 0.32169008 6.9974778e-39
2.9666195 -2.5826478 0.32783747 6.0773235e-39
3.0164261 -2.5692639 0.31696677 6.5368612e-39
3.0742702 -2.5766487 0.3203924 5.6174286e-39
3.1304688 -2.5831027 0.31576228 5.5252274e-39
3.1789024 -2.5737436 0.31922728 5.0664072e-39
3.229655 -2.5957842 0.31435755 5.1582483e-39
3.339211 -2.585124 0.30338478 3.9611569e-39
3.3625998 -2.5759649 0.30363014 3.0392062e-39
3.5708852 -2.5732126 0.30739152 4.5957643e-39
3.633997 -2.5554826 0.31661248 4.5943112e-39
3.6680188 -2.5939844 0.31286287 1.1426078e-38
3.7128057 -2.564059 0.30858272 1.1517946e-38
2.2220831 -2.5031066 0.3198446 8.1074183e-39
2.2734547 -2.5089343 0.3275317 8.3832947e-39
2.3262017 -2.5152309 0.33361402 8.7509954e-39
2.3752332 -2.5272882 0.32457823 8.7520744e-39
2.4248555 -2.5285244 0.32013002 8.7513541e-39
2.4774582 -2.5320759 0.32102144 8.9357482e-39
2.5448294 -2.5449874 0.33134502 8.7502863e-39
2.5764065 -2.5460081 0.31478673 8.4754987e-39
2.6814108 -2.5361028 0.33588377 5.8950819e-39
2.7171388 -2.5132668 0.34733781 3.2225198e-39
2.772403 -2.5211682 0.32174566 5.4315898e-39
2.9228351 -2.5298035 0.33022782 5.5245113e-39
2.9690335 -2.5402069 0.32601064 5.8940127e-39
3.0282149 -2.5269895 0.32892242 5.6174272e-39
3.0740035 -2.5129859 0.33157146 5.7107102e-39
3.1226683 -2.5055027 0.32332557 5.6192293e-39
3.1677563 -2.5308404 0.30790815 5.4341331e-39
3.2234395 -2.534579 0.31646451 5.064622e-39
3.2577672 -2.5166583 0.31560636 5.157891e-39
3.3136678 -2.5236764 0.30854726 4.3299352e-39
3.3564057 -2.5168278 0.31870598 4.1473404e-39
3.5694358 -2.5274796 0.30189747 8.9274595e-39
3.6318252 -2.5255692 0.31135684 9.5753541e-39
3.6783447 -2.521337 0.3238267 1.2805019e-38
3.7335303 -2.5288162 0.31628686 1.2716851e-38
1.9511126 -2.4547458 0.34978676 8.8449987e-39
2.0227816 -2.4644029 0.32614198 8.8453574e-39
2.0727882 -2.4726055 0.32868546 8.0163142e-39
2.1238048 -2.4759984 0.33794707 6.815606e-39
2.177392 -2.4843206 0.34094322 8.5666027e-39
2.225487 -2.4876606 0.33835307 9.1190577e-39
2.2741163 -2.4712434 0.32944497 9.0279536e-39
2.3285129 -2.4876239 0.32613456 9.0279452e-39
2.3974285 -2.4903283 0.33391011 8.8435512e-39
2.7048087 -2.4574554 0.34572238 3.7753279e-39
2.8315606 -2.4867034 0.32367578 4.2337697e-39
2.8577113 -2.4599488 0.32761055 5.3411962e-39
2.9191835 -2.4787834 0.33651909 5.7088941e-39
2.9662201 -2.4774342 0.33605662 5.8947372e-39
3.0245142 -2.4660788 0.32569218 5.6188677e-39
3.0885539 -2.4787114 0.32069999 6.1702352e-39
3.1110437 -2.4732127 0.32147613 5.7099731e-39
3.1761205 -2.4855807 0.31488976 5.158607e-39
3.2127373 -2.4690945 0.31550264 5.709983e-39
3.2757888 -2.4686809 0.30815923 5.7117892e-39
3.3865952 -2.4773459 0.31237361 3.59238e-39
3.5057003 -2.4556916 0.31133294 2.4863855e-39
3.5615661 -2.4569826 0.3128885 5.0574473e-39
3.6394598 -2.4547577 0.32286608 1.3995691e-38
3.7295251 -2.480047 0.31227311 1.5112497e-38
1.7185191 -2.4047849 0.31434739 1.0964062e-38
1.7782098 -2.4118958 0.3154805 1.105554e-38
1.8368475 -2.4195142 0.30660346 1.0410525e-38
1.8782814 -2.4313464 0.31286585 1.0134654e-38
1.9152435 -2.4276438 0.31713608 9.7655243e-39
1.9825624 -2.4347384 0.33428669 9.1212283e-39
2.0123656 -2.4328098 0.32741892 9.396739e-39
2.0831676 -2.410418 0.348423 5.9854965e-39
2.6815932 -2.4136386 0.34515777 4.2366563e-39
2.72054 -2.4316289 0.34122071 3.7749635e-39
2.7576451 -2.4443564 0.31378394 3.1295885e-39
2.8442252 -2.4399889 0.32849056 5.9840279e-39
2.8835378 -2.4228714 0.34107804 5.9844006e-39
2.9265382 -2.434674 0.33572435 6.5375772e-39
2.9849625 -2.4304471 0.3292852 6.0787697e-39
3.0301712 -2.4168415 0.32853812 6.2638742e-39
3.0657442 -2.4222779 0.33832836 6.7244852e-39
3.1246033 -2.4335306 0.31854436 6.0787641e-39
3.1865642 -2.4247215 0.31879511 6.6312316e-39
3.2134082 -2.426466 0.31605756 5.5266805e-39
3.266902 -2.4177749 0.31444186 6.3557139e-39
3.3172085 -2.434021 0.30350012 5.6203181e-39
3.360929 -2.4187994 0.31483242 5.3437298e-39
3.4164815 -2.4380662 0.30607021 3.222873e-39
3.6327968 -2.413342 0.31608951 1.6040177e-38
3.6886446 -2.4284248 0.32142192 1.4465695e-38
3.7257318 -2.4211879 0.33626771 1.6768418e-38
3.7803829 -2.4335525 0.30066192 1.7142975e-38
1.471607 -2.3523216 0.32912382 1.3084561e-38
1.5225617 -2.3611565 0.3321346 1.3175678e-38
1.5779905 -2.3717842 0.32439154 1.2623227e-38
1.6264465 -2.3765626 0.32510245 1.2346643e-38
1.6568303 -2.3770146 0.32189605 1.2069692e-38
1.7207174 -2.3891358 0.31557527 1.2068972e-38
2.6729102 -2.3973088 0.33504587 2.8537359e-39
2.7205107 -2.3729508 0.34259981 3.6834896e-39
2.7837598 -2.3891706 0.34091067 2.9480825e-39
2.8786743 -2.3677626 0.33067045 6.2617148e-39
2.9177442 -2.3766727 0.33879751 6.6304987e-39
2.9694099 -2.3798485 0.33613142 6.9070856e-39
3.0281899 -2.3716364 0.33634973 7.0007176e-39
3.074733 -2.3752267 0.32956269 6.1716856e-39
3.1213069 -2.3835759 0.32255849 6.1713282e-39
3.1689613 -2.3691485 0.32118991 6.8156159e-39
3.2216699 -2.3791072 0.3136653 7.0003672e-39
3.2784774 -2.3737512 0.30977085 6.3564328e-39
3.3300595 -2.3755724 0.31603342 6.3567957e-39
3.3540907 -2.3995702 0.30908972 6.1727786e-39
3.4458416 -2.3635304 0.31806958 3.7760537e-39
3.5466642 -2.3518903 0.32705325 6.6254947e-39
3.5986605 -2.355571 0.32086736 1.2531728e-38
3.6235189 -2.3652401 0.3403638 1.3728856e-38
3.6593707 -2.3718121 0.33115646 1.6586193e-38
3.730124 -2.374382 0.33587781 1.8619913e-38
3.7818067 -2.3774281 0.32133439 1.7327002e-38
1.3275421 -2.3182344 0.34280604 1.990922e-38
1.3712689 -2.3302143 0.34030733 1.7325573e-38
1.4222614 -2.3377275 0.32832575 1.5847919e-38
1.5793738 -2.344667 0.32912681 1.3359371e-38
2.7777781 -2.3250079 0.34788027 4.0522665e-39
2.8952665 -2.3442233 0.33546287 6.7226944e-39
2.9196444 -2.3178852 0.33812058 7.0921957e-39
2.9729986 -2.3224511 0.33448631 6.8156187e-39
3.0303514 -2.3334613 0.32688609 6.9078017e-39
3.0735626 -2.3171747 0.31918958 7.0929048e-39
3.116662 -2.3173563 0.32492501 7.3702246e-39
3.179553 -2.3291132 0.31658852 6.8163333e-39
3.2341466 -2.3321939 0.32279363 6.633384e-39
3.2800491 -2.3119636 0.3173534 7.0018036e-39
3.3223386 -2.3078074 0.30229968 6.9078199e-39
3.3808715 -2.3258257 0.31662956 6.1727744e-39
3.442924 -2.3013842 0.34721267 1.6222776e-38
3.4808176 -2.3213644 0.31536815 5.0631996e-39
3.529207 -2.3204243 0.32247767 1.1335372e-38
3.5797551 -2.3326323 0.31497881 1.1146313e-38
3.6369989 -2.3351431 0.31315172 1.6955341e-38
3.6710236 -2.336561 0.32165599 1.9077283e-38
3.7204835 -2.3233998 0.3310827 1.8066026e-38
3.7755649 -2.3143053 0.30533862 1.6126338e-38
1.2247844 -2.2828856 0.32465756 2.341769e-38
1.2844313 -2.2942903 0.34436977 2.2309187e-38
2.736536 -2.2793217 0.33688855 4.6972646e-39
2.7823007 -2.2786086 0.34070167 4.5110852e-39
2.8883555 -2.2768049 0.34361878 5.9862167e-39
2.9422336 -2.2748227 0.34032011 7.0925629e-39
2.9795315 -2.2747991 0.33639944 7.0911195e-39
3.0235913 -2.2884817 0.33317655 7.0929146e-39
3.0668008 -2.2660425 0.33645377 7.3702274e-39
3.1345665 -2.2781487 0.3265442 7.5528152e-39
3.1774156 -2.2755249 0.33302268 7.1847641e-39
3.2263532 -2.264812 0.32227114 8.0159499e-39
3.2762344 -2.2661543 0.32585526 8.1063701e-39
3.332674 -2.2845492 0.31929249 7.0007372e-39
3.3718655 -2.2708793 0.33046427 9.0294068e-39
3.4236395 -2.2762892 0.32320526 8.8439379e-39
3.4689801 -2.2820461 0.32422799 1.2070416e-38
3.6382549 -2.2752304 0.31888664 1.8618845e-38
3.6770022 -2.2682528 0.3417066 1.8433361e-38
3.72647 -2.275044 0.33252007 1.8801796e-38
3.8045158 -2.2571113 0.32750192 1.7695782e-38
2.7100296 -2.2496719 0.34876186 4.6976443e-39
2.7813349 -2.2332039 0.34580228 4.6961954e-39
2.8315709 -2.2350075 0.34431615 5.0649751e-39
2.8778989 -2.2129946 0.34391966 7.5535382e-39
2.931874 -2.2244117 0.34227589 7.5531781e-39
2.9799685 -2.2079093 0.34601516 7.9226921e-39
3.0172648 -2.2323043 0.34253788 7.7379211e-39
3.0614746 -2.2211268 0.33995709 8.0145206e-39
3.1206386 -2.2148526 0.33636093 8.7517297e-39
3.1712451 -2.2249832 0.33293259 7.8287014e-39
3.2345636 -2.2301216 0.33128917 9.6736902e-39
3.2801621 -2.2191086 0.32762864 1.0319794e-38
3.3359118 -2.2379494 0.3110112 8.0152619e-39
3.3649318 -2.2431433 0.31061468 8.2925466e-39
3.4410479 -2.222404 0.32136196 1.529546e-38
3.4862995 -2.2374554 0.30687624 1.1052323e-38
3.6483819 -2.2297308 0.306355 1.9077297e-38
3.6854196 -2.22667 0.34023562 1.889435e-38
3.7233627 -2.2284472 0.32351735 1.8986177e-38
3.7655964 -2.2007523 0.32790905 1.8158942e-38
3.822542 -2.2286248 0.32879138 1.7233749e-38
3.8640001 -2.2272401 0.32016 1.8154982e-38
3.9070003 -2.2217574 0.32372287 1.815498e-38
2.7598443 -2.155165 0.34661853 5.7096326e-39
2.9162316 -2.1739807 0.34722722 8.0138031e-39
2.9759548 -2.182276 0.34396231 7.8304993e-39
3.0162902 -2.1783767 0.34091276 8.475133e-39
3.0815549 -2.1896853 0.33460027 8.1971196e-39
3.134419 -2.1868846 0.32479781 8.1974727e-39
3.1808031 -2.1954377 0.33060634 1.069141e-38
3.2631457 -2.1898017 0.3069424 8.4765637e-39
3.3112299 -2.179641 0.32028538 1.3909677e-38
3.3648751 -2.1917076 0.31880349 1.2528535e-38
3.6568122 -2.1954257 0.31742507 1.9261694e-38
3.7101433 -2.1739578 0.33376631 1.9079454e-38
3.7697918 -2.1736939 0.32633331 1.852736e-38
3.8165953 -2.1720836 0.32423586 1.7602161e-38
3.8691015 -2.1852417 0.34738016 1.8156064e-38
3.9070003 -2.1919897 0.32372287 1.6325822e-38
3.7293544 -2.1255388 0.33462805 1.9263839e-38
3.7845216 -2.1345077 0.32772589 1.7142996e-38
3.8270197 -2.1377592 0.32139668 1.4945773e-38
3.871304 -2.1267619 0.31330216 2.9484721e-39
3.9465265 -2.1266122 0.31286475 2.5764358e-39
4.0450001 -2.1291385 0.33515716 9.5677646e-39
3.7277682 -2.0969651 0.3183946 1.9538991e-38
3.7607818 -2.0896111 0.32819203 2.0924075e-38
3.8228593 -2.0740156 0.32920718 3.3150616e-39
3.8732343 -2.0662889 0.32156062 3.5909408e-39
3.9392092 -2.0902891 0.32699427 4.7804877e-39
3.9980001 -2.0592306 0.3008019 1.13209e-38
4.0450001 -2.0623636 0.32488415 1.141416e-38
3.7801676 -2.0371163 0.33753777 3.4980235e-39
3.8434734 -2.0414023 0.31408146 3.1321095e-39
3.8838143 -2.0214181 0.32314411 1.1410576e-38
3.9223793 -2.0260627 0.31601182 1.2149923e-38
3.9669218 -2.0181434 0.30873829 1.2886758e-38
4.0450001 -2.0212715 0.31974763 1.1783303e-38
3.8310828 -1.9514 0.34941268 1.2978955e-38
3.8784425 -1.9782867 0.32197037 1.3070426e-38
3.9020419 -1.9606755 0.32133156 1.3254811e-38
3.9686637 -1.975911 0.31397697 1.2333234e-38
4.0450001 -1.9750428 0.31974763 1.2151717e-38
3.6461301 -1.9045417 0.31170645 1.0492212e-38
3.7866492 -1.9129918 0.33641243 1.2700231e-38
3.8400984 -1.9045491 0.30004036 1.3621084e-38
3.8848982 -1.9267853 0.33038083 1.325553e-38
3.9155989 -1.935075 0.32153505 1.3438849e-38
3.993077 -1.9181023 0.32208365 1.2610537e-38
4.0450001 -1.9288143 0.33515716 1.215099e-38
3.5768619 -1.893288 0.30355692 2.9448553e-39
3.6882019 -1.8760643 0.3223618 1.1228343e-38
3.7627735 -1.8975697 0.31026971 1.2425779e-38
3.8300257 -1.8737081 0.30899492 1.3346662e-38
3.8660583 -1.8749698 0.33074746 1.3806901e-38
3.9178696 -1.8757381 0.31920213 1.3807623e-38
3.9864645 -1.8801093 0.32661977 1.2886781e-38
4.0310373 -1.8761274 0.32210663 1.2151008e-38
3.7035339 -1.801632 0.34553236 1.1690398e-38
3.8489118 -1.8251703 0.31162107 1.3990586e-38
3.8736382 -1.8167143 0.32012993 1.4084199e-38
3.9200881 -1.8136183 0.31830999 1.4268249e-38
3.9662647 -1.8233646 0.31302813 1.4176774e-38
4.0418839 -1.8300358 0.31875402 1.2150289e-38
4.0930004 -1.8264297 0.32354194 1.2610904e-38
3.7138302 -1.7873169 0.30423009 1.1782231e-38
3.7759697 -1.7764387 0.32023269 1.1874791e-38
3.8686476 -1.7779522 0.30780113 1.4268248e-38
3.9079745 -1.7569883 0.31576607 1.4267874e-38
3.9756131 -1.7758833 0.32621384 1.3899827e-38
4.0363054 -1.7807466 0.32825667 1.1872619e-38
4.0772643 -1.7819473 0.32015368 1.2333957e-38
3.7584512 -1.7359625 0.32631156 1.2057742e-38
3.8039131 -1.7055147 0.34383839 1.1782238e-38
3.8802166 -1.7211354 0.32786331 1.3991298e-38
3.9164917 -1.723168 0.31954041 1.4084204e-38
3.983542 -1.7257773 0.33062762 1.4176054e-38
4.0298386 -1.7300395 0.33104625 1.3715073e-38
4.0763392 -1.729051 0.32523069 1.2610897e-38
3.7193975 -1.6909344 0.30899668 1.2610894e-38
3.7871847 -1.6847776 0.30448127 1.1874431e-38
3.8173561 -1.6760242 0.32582572 1.2057737e-38
3.8861585 -1.6825138 0.3271834 1.4634854e-38
3.9064198 -1.6652 0.31434572 1.4450846e-38
3.9732883 -1.6726331 0.32050893 1.4360072e-38
4.0389414 -1.6758362 0.31892809 1.3255546e-38
4.0691504 -1.6823957 0.34007752 1.3254822e-38
3.7841003 -1.6302358 0.31245029 1.1874431e-38
3.8349409 -1.6158719 0.32211435 1.214993e-38
3.9188728 -1.6319723 0.30999884 1.4911796e-38
3.9792945 -1.6267972 0.31292334 1.4177134e-38
4.0249348 -1.6372019 0.31206283 1.343921e-38
4.0750275 -1.6382914 0.32889068 1.4451192e-38
3.7824466 -1.5887583 0.32126907 1.2058812e-38
3.826108 -1.5771018 0.32510358 1.2978969e-38
3.9182835 -1.5770689 0.34660012 1.4727424e-38
3.9805748 -1.5782113 0.33109206 1.4269679e-38
4.0290341 -1.5723106 0.32141715 1.4452995e-38
4.0717344 -1.5890045 0.34378469 1.4452275e-38
3.8224392 -1.5305063 0.3209947 1.2519785e-38
3.8741424 -1.5303127 0.31816512 1.3439946e-38
3.9230206 -1.5177038 0.33505437 1.5003654e-38
3.9815774 -1.524084 0.3202554 1.4269313e-38
4.0302033 -1.5167168 0.32976863 1.4451557e-38
4.0639668 -1.5200275 0.33023953 1.4267563e-38
3.8423483 -1.4959376 0.30744997 1.2888197e-38
3.8753893 -1.4832989 0.32953969 1.3532136e-38
3.9236994 -1.4818796 0.32550094 1.3070792e-38
3.9768798 -1.4716552 0.31707034 1.4728863e-38
4.0427732 -1.4748385 0.33462515 1.380762e-38
4.0699263 -1.4711488 0.32545346 1.4543753e-38
3.7834005 -1.4177985 0.30105549 1.2979327e-38
3.8852508 -1.4422625 0.32287678 1.362362e-38
3.9223909 -1.419064 0.32266685 1.3439226e-38
