# .PCD v0.7 - Point Cloud Data file format
VERSION 0.7
FIELDS x y z rgb
SIZE 4 4 4 4
TYPE F F F F
COUNT 1 1 1 1
WIDTH 1080
HEIGHT 1
VIEWPOINT 0 0 0 1 0 0 0
POINTS 1080
DATA ascii
4.0297937 -0.96771139 1.0152774 1.6586548e-38
4.080514 -0.96792483 1.0110842 1.0594539e-38
4.1119838 -0.98320585 1.0329164 1.0873664e-38
4.1815615 -0.9842304 1.0263174 1.7602516e-38
4.2309356 -0.96582353 1.0201713 1.4745536e-38
4.2898445 -0.97476137 1.008083 1.7508526e-38
4.3195672 -0.97411531 1.0379323 1.3454435e-38
4.3824425 -0.96702123 1.0193187 1.142614e-38
3.849196 -0.91480213 1.0374911 1.6128455e-38
3.8727067 -0.92865461 1.0240726 1.6034452e-38
3.9448457 -0.92181033 1.0123035 1.7234442e-38
4.0261269 -0.92229038 1.0369947 1.7325925e-38
4.0712442 -0.93810141 1.0202092 1.3639171e-38
4.1199498 -0.9299863 1.0194032 1.5114313e-38
4.2431045 -0.92131138 1.0284902 1.5850081e-38
4.2718568 -0.92794579 1.0207573 1.6586579e-38
4.3334436 -0.91707492 1.0191749 1.0965155e-38
3.877203 -0.87752521 1.0353723 1.6865321e-38
3.9165511 -0.86900192 1.0441062 1.7326295e-38
3.9659033 -0.85260892 1.0261755 1.6774553e-38
4.0229907 -0.87750435 1.0141504 1.7049698e-38
4.0714412 -0.87507153 1.0215235 1.4193797e-38
4.1229758 -0.89386201 1.0209424 1.3733176e-38
4.176487 -0.86962163 1.0121218 1.6588001e-38
4.2790632 -0.88952637 1.0426934 1.1243537e-38
4.3196697 -0.87519431 1.0181096 1.0321575e-38
4.3560314 -0.87730592 1.0087836 9.1237436e-39
3.859704 -0.8212927 1.0298979 1.6035566e-38
3.9212151 -0.83654624 1.0434499 1.6680925e-38
3.9760246 -0.81506139 1.0067005 1.4841317e-38
4.025732 -0.81592846 1.0279984 1.2720829e-38
4.0745244 -0.83306152 1.018994 1.3732816e-38
4.1293278 -0.83598405 1.022576 1.1877755e-38
4.1839385 -0.84400952 1.0115085 1.3451214e-38
4.2243519 -0.82782167 1.0278544 5.9707772e-39
4.25209 -0.84752828 1.0415808 1.1151355e-38
4.3500004 -0.81142867 1.0232857 1.2494315e-38
4.4060001 -0.82129532 1.0028896 8.0966591e-39
3.7719741 -0.76587921 1.0469972 9.7709319e-39
3.8198802 -0.77201706 1.0237199 1.1611606e-38
3.9359093 -0.76026446 1.0215549 1.020673e-38
3.9728417 -0.77361029 1.0229511 9.0214838e-39
4.0173903 -0.77124417 1.0175568 8.9289309e-39
4.0633345 -0.7871868 1.0205038 1.2067876e-38
4.1332474 -0.7841379 1.0313703 1.0861439e-38
4.2128763 -0.76788652 1.0275813 1.3156291e-38
4.3500004 -0.7782858 1.0232857 1.2310295e-38
4.4060001 -0.78772575 1.0028896 9.7468155e-39
3.6914918 -0.72618765 1.0383943 1.3728493e-38
3.7209082 -0.70916349 1.0214659 1.4648656e-38
3.8457432 -0.73113167 1.0226197 1.0781106e-38
3.8832805 -0.73769957 1.0257778 1.3262498e-38
3.9350922 -0.7178883 1.0268542 1.196277e-38
3.9802475 -0.7162177 1.0301565 1.113623e-38
4.027566 -0.72851712 1.0248909 1.1509684e-38
4.056551 -0.73023653 1.0222483 8.7391642e-39
4.1388483 -0.74533737 1.0290549 1.058269e-38
4.1660213 -0.72180569 1.0479763 1.0037074e-38
4.213685 -0.7241351 1.0188209 1.2237167e-38
4.2818503 -0.70835304 1.0251091 1.2988414e-38
3.7894628 -0.6980471 1.0277115 3.5820902e-39
3.8378839 -0.67687976 1.0234101 8.1117791e-39
3.8682129 -0.66814721 1.015784 7.3666583e-39
3.926511 -0.67276543 1.030429 9.209461e-39
3.9824817 -0.68369412 1.0229315 9.2937519e-39
4.0152798 -0.67777997 1.02832 9.0225783e-39
4.0628939 -0.66945279 1.0286605 1.0866114e-38
4.1295505 -0.67275542 1.0183291 1.6951017e-38
4.1941638 -0.66650939 1.0036862 1.8705991e-38
4.237247 -0.65217298 1.0379479 8.2097719e-39
4.2684703 -0.68257439 1.031806 1.8888214e-38
3.8455796 -0.63426971 1.0316194 1.7786192e-38
3.850877 -0.6068697 1.0419874 1.0326652e-38
3.9183528 -0.6351558 1.0376019 1.5481296e-38
3.9619534 -0.62053537 1.0258203 1.3830425e-38
4.0285258 -0.63365406 1.0273045 1.1146312e-38
4.0729237 -0.62662083 1.0228111 1.4013734e-38
4.1192183 -0.61223364 1.0200104 1.1336821e-38
4.1582985 -0.60004354 1.0255251 1.5658754e-39
4.2000422 -0.63654798 1.0205199 1.40249e-38
4.2840157 -0.62562501 1.0339411 7.1066529e-39
4.3239722 -0.62730885 1.0160029 6.4530103e-39
3.8153298 -0.55185974 1.041962 7.3792657e-40
3.8897896 -0.56284088 1.0231535 3.0420943e-39
3.9300678 -0.5883652 1.0207202 7.560036e-39
3.9836295 -0.57305431 1.0319595 9.2199399e-39
4.0335965 -0.57907933 1.0109525 7.0068637e-39
4.0835433 -0.56977016 1.0351572 5.1618693e-39
4.1243057 -0.57512522 1.028953 3.7785789e-39
4.1802368 -0.58325773 1.0140582 2.8551652e-39
4.2143617 -0.58839107 1.0326319 1.5651663e-39
4.2694116 -0.5678829 1.0265875 3.6770254e-39
4.3209233 -0.56933546 1.0180041 6.1655591e-39
4.3526583 -0.55420589 1.0256847 1.4736811e-39
3.8827677 -0.53836578 1.0199726 2.8523066e-39
3.9268117 -0.53830749 1.0115092 2.8526653e-39
3.9820766 -0.51478285 1.0209345 4.6897242e-39
4.0333304 -0.52706712 1.0285985 5.3365187e-39
4.0779414 -0.51353621 1.0245577 1.113686e-38
4.1408381 -0.54138654 1.0282501 4.2366563e-39
4.1714287 -0.51924008 1.0276661 6.3470665e-39
4.3124433 -0.52319229 1.0358986 1.1412364e-38
4.3596063 -0.521245 1.023874 1.0400376e-38
3.8583713 -0.49106172 1.0340405 1.1136499e-38
3.9177072 -0.47192004 1.0264574 9.5731512e-39
3.9702165 -0.47655141 1.0224109 8.0980422e-39
4.023509 -0.46816474 1.0255932 9.756811e-39
4.0755701 -0.48657602 1.0251935 1.0769873e-38
4.1383071 -0.47865644 1.025771 7.7306904e-39
4.1878762 -0.47009683 1.0220619 1.095426e-38
4.2196116 -0.4744539 1.0115931 1.058584e-38
4.2812757 -0.48243269 1.0299637 1.1688236e-38
4.3452435 -0.46925703 1.049017 1.159461e-38
4.3850565 -0.47100356 1.0127769 9.1118101e-39
3.8132555 -0.44468558 1.0297096 1.1783307e-38
3.8792756 -0.43521109 1.0268027 1.1782224e-38
3.9026508 -0.4113659 1.0169798 1.233468e-38
3.9731545 -0.42752761 1.0199437 9.7564621e-39
4.0269208 -0.42582688 1.0291216 9.6649769e-39
4.0865536 -0.41665059 1.0289198 1.0309622e-38
4.1271191 -0.42487144 1.0268314 1.0401816e-38
4.1805539 -0.42429897 1.0194101 1.0678041e-38
4.2052393 -0.42491049 1.034187 8.8363037e-39
4.2674103 -0.42396373 1.0392717 1.2240688e-38
4.3218527 -0.42745909 1.0282519 1.0583698e-38
4.3548985 -0.44356808 1.00498 9.1128975e-39
3.8768187 -0.36273041 1.0234554 1.2151371e-38
3.9360018 -0.3916986 1.0002778 9.2962e-39
3.9784381 -0.37197465 1.0282571 9.3887516e-39
4.0223351 -0.39353982 1.021805 1.0402173e-38
4.0706334 -0.37854165 1.0265827 1.2059158e-38
4.1204429 -0.37457702 1.0302806 1.1322679e-38
4.1836138 -0.36830655 1.0241704 9.3891089e-39
4.2059875 -0.35771891 1.0200422 1.2887117e-38
4.332118 -0.37588024 1.0198389 1.0768801e-38
3.8826325 -0.31176338 1.0275389 1.2243557e-38
3.9786801 -0.32053524 1.0261344 1.0401815e-38
4.0236826 -0.32177547 1.0107626 1.0125594e-38
4.0668097 -0.33548591 1.0190248 1.1415244e-38
4.1286569 -0.31411773 1.0301571 1.0218498e-38
4.1735849 -0.32681736 1.0200802 9.9422785e-39
4.2149034 -0.31239641 1.021901 1.2702731e-38
4.3166161 -0.32680026 1.0260432 1.1320893e-38
3.8768806 -0.25993118 1.0240993 1.2335398e-38
3.9447689 -0.28318298 1.0286064 1.0862063e-38
3.9934375 -0.28338072 1.0359589 1.0770237e-38
4.0311861 -0.26817286 1.0283977 1.067804e-38
4.0724497 -0.26546541 1.0257784 1.1138294e-38
4.1354175 -0.27271101 1.0317526 1.0034111e-38
4.1824646 -0.28775138 1.0200307 1.0310339e-38
4.2267923 -0.25196636 1.0243795 1.2886762e-38
4.3279009 -0.26833129 1.0158803 1.0952477e-38
3.8881581 -0.21540338 1.0176119 1.1690746e-38
3.9149876 -0.23968115 1.0133857 1.1230135e-38
3.9838676 -0.21776696 1.0182813 1.1966615e-38
4.0266924 -0.22728667 1.024047 1.1230488e-38
4.0797896 -0.22247414 1.0280434 1.1137932e-38
4.1354833 -0.22329222 1.0273012 1.0862787e-38
4.1664085 -0.23564765 1.0210967 9.5735058e-39
4.222949 -0.22367986 1.0267053 1.1505634e-38
4.3626175 -0.23200527 1.0126846 1.1045382e-38
3.8838935 -0.16785054 1.015615 1.1690033e-38
3.925781 -0.18027179 1.0201231 1.2519422e-38
3.9812489 -0.16997257 1.0173366 1.2151357e-38
4.031703 -0.17967881 1.0321043 1.1046817e-38
4.082304 -0.18708754 1.0167605 1.2058802e-38
4.129365 -0.17606235 1.0345095 1.0586922e-38
4.1679306 -0.15578257 1.0074718 1.0311413e-38
4.2287774 -0.17090817 1.0267568 1.0862794e-38
4.2674074 -0.17898852 1.0191864 1.2793858e-38
4.3585873 -0.17932206 1.0263869 1.0124163e-38
3.8985901 -0.14049265 1.0150559 1.0217436e-38
3.9695103 -0.13006218 1.0241399 1.2704172e-38
4.0215282 -0.1242357 1.0236162 1.0954981e-38
4.064517 -0.13295293 1.0221429 1.1047178e-38
4.1263118 -0.11133301 1.0319703 1.0587641e-38
4.1655736 -0.12130401 1.0091445 9.851166e-39
4.2701249 -0.12953421 1.0264452 1.2887134e-38
4.3216772 -0.12801172 1.0204266 9.9408449e-39
4.3534107 -0.14343101 1.0375313 1.0307842e-38
3.8933742 -0.086757407 1.0178607 1.0217432e-38
3.9430449 -0.077231638 1.0302675 1.2981471e-38
3.9707961 -0.080787681 1.0272129 1.2704894e-38
4.018692 -0.076905653 1.0266238 1.1139018e-38
4.052299 -0.05300831 1.0209291 1.0125954e-38
4.1158485 -0.070079058 1.0323862 1.0587639e-38
4.1718445 -0.07717146 1.0226563 1.1691458e-38
4.2117786 -0.074791081 1.0161052 1.2334319e-38
4.2955542 -0.099452198 1.0481839 9.9412079e-39
4.3085222 -0.065878466 1.0329795 9.5727897e-39
3.8574622 -0.022704527 1.0254787 1.0033401e-38
3.902597 -0.041577786 1.0360231 1.0399675e-38
3.9638443 -0.023608621 1.022337 1.2428309e-38
4.0240669 -0.017615018 1.0264934 1.0586563e-38
4.0696845 -0.028558334 1.0173004 1.0495447e-38
4.1309094 -0.022874162 1.0306003 1.0495091e-38
4.182426 -0.021007489 1.0398587 1.1507438e-38
4.2095971 -0.041303888 1.0201424 9.7593249e-39
4.308702 -0.0032438636 1.0355411 9.5724226e-39
3.83814 0.021982562 1.0407561 1.2886426e-38
3.8917859 0.022389293 1.0267053 1.0034117e-38
3.9281716 0.039941724 1.0297883 1.187586e-38
3.980361 0.033249311 1.0266974 1.2428304e-38
4.022553 0.011276629 1.0237534 1.1415595e-38
4.0794115 0.028043158 1.0203351 1.2151365e-38
4.1209106 0.027556665 1.0332096 1.0679126e-38
4.174644 0.0091812452 1.0193824 1.0954987e-38
4.214457 0.047964189 1.034462 1.3346301e-38
4.2739015 0.03045547 1.0001271 9.4805899e-39
3.8100917 0.072923318 1.0425084 1.3070446e-38
3.8753226 0.068223685 1.0374357 1.0492929e-38
3.92715 0.079295874 1.0052474 1.2243551e-38
3.9698067 0.081359901 1.0316643 1.159927e-38
4.0218391 0.074418135 1.0240399 1.0955699e-38
4.0778999 0.074948825 1.0251949 1.196769e-38
4.1253004 0.074288234 1.0390871 1.1415598e-38
4.1775403 0.066864699 1.0058311 9.7578984e-39
4.2876611 0.065059483 1.0218232 9.7557502e-39
3.8356955 0.1273666 1.0263752 1.1321973e-38
3.9260409 0.11879247 1.0405033 1.2796359e-38
3.973479 0.12951785 1.0297544 1.2059531e-38
4.0136819 0.12446475 1.0050517 1.1323398e-38
4.0651288 0.12483959 1.0228367 1.1875862e-38
4.1301818 0.12480683 1.0309601 1.0219587e-38
4.1828012 0.10969801 1.0453622 9.9422785e-39
4.2114892 0.11620818 1.0218117 1.1873708e-38
4.3088908 0.11959878 1.0126939 9.7571767e-39
3.8207603 0.17836112 1.0217919 1.178223e-38
3.9241486 0.1753929 1.0440977 1.0494726e-38
3.9784005 0.17667873 1.0265919 1.1507434e-38
4.0071664 0.17499179 1.0255518 1.2889283e-38
4.0791492 0.17682715 1.0299971 1.2428311e-38
4.1255908 0.17000037 1.0291482 1.077132e-38
4.185554 0.18201768 1.0147699 1.0126311e-38
4.2154121 0.17189559 1.0249594 1.353141e-38
3.7893009 0.22736999 1.0230966 1.0587652e-38
3.8349905 0.22179893 1.0213178 1.2151368e-38
3.9351974 0.24126309 1.0018551 1.2429373e-38
3.9708819 0.21934509 1.0276208 1.2244631e-38
4.0135798 0.24217939 1.0185187 1.0771669e-38
4.0824203 0.23604107 1.0228524 1.3071871e-38
4.1304803 0.22513366 1.0221161 1.0771676e-38
4.2297001 0.24451561 1.0266824 1.3715441e-38
3.7866473 0.27969828 1.0272479 1.0402548e-38
3.8176713 0.27023247 1.0213749 1.1230862e-38
3.8729863 0.29162443 1.0136131 1.3438868e-38
3.9355075 0.25804758 1.0311266 1.2244993e-38
3.9694018 0.28578055 1.0257026 1.1691823e-38
4.025166 0.26093224 1.0309206 1.2796725e-38
4.0770016 0.28150028 1.0183694 1.2980756e-38
4.1129007 0.27513793 1.0334357 1.0403613e-38
4.1527677 0.26013428 1.0197531 9.8525912e-39
3.796984 0.31346393 1.029773 1.2058096e-38
3.8268547 0.33275786 1.0112923 1.1414886e-38
3.8823516 0.31475577 1.0267131 1.067876e-38
3.9265683 0.33283859 1.0212439 1.2520858e-38
3.9710782 0.33277524 1.0346191 1.1600707e-38
4.01019 0.325427 1.033636 1.1876219e-38
4.075788 0.32471326 1.0313401 1.2335394e-38
4.130527 0.32616127 1.0298812 1.0864231e-38
4.1686802 0.31134984 1.0129126 1.2519066e-38
3.7779102 0.3747738 1.0092585 1.0586219e-38
3.8332462 0.38408488 1.0141636 1.2242846e-38
3.8913698 0.36517432 1.0181926 1.3716893e-38
3.927047 0.37338561 1.0271053 1.1876219e-38
3.969888 0.38584223 1.0309727 1.1324126e-38
4.015779 0.36263615 1.0279552 1.1875859e-38
4.0786614 0.37195364 1.0329682 1.1599635e-38
4.1194067 0.37782317 1.0267919 1.0770963e-38
4.1638718 0.36386833 1.0155003 1.1322336e-38
4.2081804 0.36812866 1.0081129 1.3347742e-38
3.7907982 0.413102 1.034375 1.0310726e-38
3.8101254 0.43151012 1.015136 1.2254043e-38
3.8823516 0.43192056 1.0387532 1.7046028e-38
3.931531 0.42261317 1.0280861 1.2795665e-38
3.9695809 0.4268139 1.0253397 1.2339359e-38
4.0201287 0.40379453 1.0296588 1.3625776e-38
4.0810037 0.42713371 1.0205771 1.1967689e-38
4.1289616 0.41636181 1.0222394 1.0955343e-38
3.8392732 0.49414486 1.008431 1.0033775e-38
3.8654785 0.45286217 1.0299865 1.3447217e-38
3.9186046 0.47114423 1.0229133 1.4659838e-38
3.9770699 0.47425398 1.0229377 1.5399164e-38
4.021471 0.48307762 1.0221702 1.2717546e-38
4.0682578 0.47532004 1.024613 1.2803961e-38
4.119298 0.47195709 1.0248953 1.2901214e-38
3.8302109 0.52265388 1.0167848 1.0402902e-38
3.9322267 0.51459259 1.0358433 1.2703813e-38
3.9686611 0.52087319 1.0214207 1.2429758e-38
4.0238953 0.52727944 1.0191892 1.1512866e-38
4.0678906 0.52841276 1.0353867 1.1692558e-38
4.1269469 0.5179283 1.0335552 1.2251873e-38
4.1718574 0.53690273 1.0287327 1.215176e-38
3.8843977 0.57698834 1.0263592 1.3441352e-38
3.9260998 0.56888491 1.026827 1.1139017e-38
3.9857147 0.5763002 1.0238369 1.1415964e-38
4.0238914 0.57231307 1.0341599 1.1415248e-38
4.07196 0.57462549 1.0281799 1.1784766e-38
4.1426239 0.56995404 1.0313525 1.2805409e-38
4.1764584 0.57817686 1.0217881 1.095645e-38
4.2175279 0.56903344 1.0196077 1.2147418e-38
4.2513061 0.58730191 1.0096546 1.3529615e-38
3.8459935 0.60096008 1.0116113 1.0402902e-38
3.9312313 0.62415588 1.0290643 1.2796009e-38
3.9623811 0.63120401 1.0132359 1.233647e-38
4.0247707 0.6230576 1.0291491 1.1784735e-38
4.0765638 0.63343483 1.0267115 1.3349184e-38
4.1287651 0.61885846 1.0201296 1.1601431e-38
4.1797519 0.62845892 1.024092 1.0403259e-38
4.2144647 0.621566 1.0182211 1.2059907e-38
3.7794774 0.69502062 1.0236549 1.3623275e-38
3.886167 0.6767779 1.0409422 1.0863507e-38
3.9300184 0.68817878 1.0319386 1.2519055e-38
3.969847 0.67647827 1.0272284 1.2427944e-38
4.0250826 0.67452431 1.0233204 1.1692178e-38
4.0661607 0.66327769 1.0246351 1.2796384e-38
4.1265392 0.67768157 1.0307248 1.1599988e-38
4.1787934 0.67290789 1.021835 1.1138658e-38
4.2685304 0.67485458 1.0132455 1.3164057e-38
3.6954091 0.74898708 1.0185879 1.3438885e-38
3.7552247 0.72557783 1.0259665 1.3347032e-38
3.8826535 0.73537344 1.0240122 1.1875855e-38
3.9257097 0.74664104 1.032961 1.25187e-38
3.9723346 0.72941834 1.0232633 1.2612692e-38
4.0196443 0.72857028 1.011847 1.2521943e-38
4.0784998 0.72229356 1.0269241 1.2245349e-38
4.1385946 0.72841322 1.02649 1.2427589e-38
4.1703649 0.72355515 1.0158969 1.0218502e-38
3.732126 0.7535798 1.0027323 1.3530707e-38
3.8839686 0.7801196 1.0498356 1.0954617e-38
3.9220116 0.78087366 1.0237558 1.2796365e-38
3.9703915 0.78005391 1.0310361 1.1968413e-38
4.0292993 0.78324938 1.0185177 1.1508508e-38
4.0635691 0.75530386 1.0436354 1.4179299e-38
4.133471 0.77863127 1.0290304 1.1507791e-38
4.1663561 0.77344632 1.0224173 1.1782584e-38
4.2237768 0.76997209 1.0176216 9.9429889e-39
3.7484002 0.80522591 1.0232483 1.3346317e-38
3.878983 0.81889749 1.0309824 1.1507072e-38
3.9226921 0.82448101 1.0340556 1.2704888e-38
3.967344 0.82596332 1.0312313 1.0679482e-38
4.019372 0.83051085 1.0144367 1.2244987e-38
4.0711923 0.81747192 1.0287915 1.2152444e-38
4.1322761 0.83169717 1.0214427 1.1322689e-38
4.1671419 0.82834542 1.0267184 1.2978967e-38
3.7438054 0.87537241 1.020256 1.325376e-38
3.7626281 0.88034672 1.0320122 1.3161585e-38
3.88064 0.87763894 1.0291958 1.1139014e-38
3.9155238 0.87979555 1.0203675 1.1969132e-38
3.9776685 0.86892343 1.0242405 1.0956065e-38
4.0296798 0.88232535 1.0163219 1.233684e-38
4.1227307 0.88274372 1.0269977 1.1138662e-38
4.1638799 0.87526482 1.0149864 1.1323409e-38
3.8495831 0.92152667 1.022383 1.2058448e-38
3.8780525 0.92348278 1.0265478 1.1599991e-38
3.9472029 0.93567145 1.0140129 1.0494009e-38
3.974483 0.91975081 1.029335 1.1139738e-38
4.0205064 0.9397583 1.0233587 1.2244281e-38
4.0648437 0.92433226 1.044459 1.3530342e-38
4.1219854 0.92969006 1.0329984 1.0954988e-38
4.1545334 0.94365597 1.0237582 1.3163354e-38
3.7648587 0.95209992 1.0106838 1.3806555e-38
3.8389938 0.99934137 1.0143238 1.1046816e-38
3.868813 0.97162771 1.0221472 1.1507073e-38
3.9281833 0.97513533 1.0299512 1.1323407e-38
3.9679484 0.97270101 1.0256078 1.0955703e-38
4.0123277 0.98242056 1.0152153 1.2152447e-38
4.0937943 0.97689092 1.0278702 1.003412e-38
4.1202188 0.97035789 1.0231144 1.1139018e-38
4.1554604 0.97367501 1.0240233 1.3162639e-38
3.7396979 1.022747 1.0223938 1.3622179e-38
3.7807169 1.0294285 1.0211402 1.2979325e-38
3.8153822 1.024004 1.0182813 1.187513e-38
3.8616605 1.0237051 1.0333238 1.2244997e-38
3.9280334 1.0369463 1.0266346 1.1876934e-38
3.9702351 1.0338527 1.0236522 1.1876575e-38
4.0076451 1.0232548 1.0460567 1.3348845e-38
4.0922031 1.0148317 1.0295259 1.058621e-38
4.1174202 1.0264479 1.0292795 1.1137936e-38
4.1673822 1.0249066 1.0259279 1.2979338e-38
3.7738178 1.067029 1.0148191 1.2518343e-38
3.8236725 1.0771226 1.009433 1.205917e-38
3.8677702 1.0680336 1.0293367 1.1415598e-38
3.9255533 1.0789971 1.0281204 1.1876579e-38
3.9627163 1.0784525 1.0203186 1.1692542e-38
4.0839276 1.0766555 1.0268134 1.0862071e-38
4.119463 1.0735192 1.0244374 1.2243201e-38
4.1627941 1.0709337 1.0199916 1.1597837e-38
3.8197536 1.1279156 1.0231829 1.2794931e-38
3.8878837 1.1404614 1.022171 1.3626124e-38
3.9284389 1.1132892 1.0326529 1.1416332e-38
3.9683585 1.1296408 1.027717 1.1508514e-38
4.0884933 1.1353303 1.024307 1.0862435e-38
4.1165528 1.1168774 1.0214942 1.1874422e-38
3.7855883 1.1748101 1.0312697 1.141381e-38
3.8098669 1.15729 1.0263622 1.0494012e-38
3.8654182 1.1825781 1.0354127 1.3071514e-38
3.9266253 1.1701287 1.0221698 1.0219581e-38
3.956543 1.1813911 1.0309342 1.1231927e-38
4.0285277 1.1662645 1.0282967 1.1600359e-38
4.0759172 1.1740419 1.0260201 1.1138659e-38
4.1173086 1.1616437 1.027117 1.1782583e-38
4.163672 1.1762826 1.0219066 1.3163707e-38
3.7710025 1.2071198 1.0330722 1.3161544e-38
3.8257592 1.2291512 1.0237226 1.077096e-38
3.8951101 1.2258044 1.0206282 1.1601063e-38
3.928194 1.2193679 1.0238668 1.1507791e-38
3.966264 1.2297544 1.0226651 1.1139385e-38
4.029593 1.2251632 1.0222827 9.8504402e-39
4.0733376 1.2214593 1.0250025 1.076988e-38
4.1227193 1.2278467 1.0160489 9.6649797e-39
4.161294 1.2247144 1.0215256 1.3163382e-38
3.7723222 1.2705044 1.0353973 1.1505641e-38
3.839226 1.2830888 1.021118 1.2057725e-38
3.8834333 1.2938567 1.0231117 1.2705247e-38
3.9242775 1.2748562 1.0238912 1.1507442e-38
3.9841111 1.2607954 1.0272193 1.1599642e-38
4.0473785 1.2942107 1.0092008 9.7582459e-39
4.0707774 1.2768915 1.0298095 1.0769525e-38
4.108994 1.2735021 1.0240462 1.1045745e-38
4.159708 1.2570021 1.0212715 1.3255895e-38
3.7341151 1.3300852 1.035022 1.0126314e-38
3.7675056 1.3269856 1.0352924 1.1690386e-38
3.8307686 1.3240138 1.0296956 1.1230129e-38
3.888118 1.3211453 1.0312179 1.0402902e-38
3.9275296 1.3183479 1.0032084 1.1599269e-38
3.9719961 1.3315837 1.0342369 1.2979676e-38
4.0400953 1.3264017 1.0406219 1.040074e-38
4.0672159 1.3262497 1.018068 9.8490066e-39
4.1113496 1.3239862 1.0306705 1.1414518e-38
3.7364733 1.3905343 1.0408452 9.3887586e-39
3.7768254 1.3819584 1.0325873 1.0862075e-38
3.8294706 1.3761771 1.0196104 1.1230487e-38
3.8836532 1.3719642 1.0257496 1.0862431e-38
3.9181492 1.370979 1.0254333 1.0494735e-38
3.9743516 1.3878266 1.0236895 1.1230494e-38
4.0240998 1.3724378 1.0239278 1.0032678e-38
4.060791 1.3762385 1.0168996 1.0124875e-38
4.1122928 1.3796064 1.026759 1.0216716e-38
3.5474792 1.4447154 1.0017098 1.2431155e-38
3.6315217 1.4150245 1.0104725 2.5767889e-39
3.6678152 1.4363887 1.0478587 1.7481086e-39
3.7338116 1.4369895 1.0273125 6.9056044e-39
3.7736044 1.4207802 1.0319879 9.8500926e-39
3.83231 1.4156493 1.0302032 1.0034122e-38
3.8810241 1.4221293 1.0308112 1.1139738e-38
3.9459746 1.4351501 1.0246444 1.1692191e-38
3.9686556 1.4131163 1.0250602 8.9292125e-39
4.0157247 1.4298583 1.0223916 1.1045383e-38
4.0743451 1.4031085 1.0227658 1.0034117e-38
4.1021166 1.4267148 1.0340667 1.261054e-38
3.4929202 1.4960855 1.008411 1.0321935e-38
3.5397427 1.491366 1.0199223 1.0785064e-38
3.5785894 1.4843078 1.0227355 1.0414122e-38
3.6125042 1.4653425 1.022698 4.2352186e-39
3.6666279 1.4787669 1.0304283 4.4192483e-39
3.7222421 1.4759338 1.0211809 1.7495506e-39
3.7844183 1.4730889 1.027864 4.6043388e-39
3.8285515 1.4799204 1.0193036 4.4174449e-39
3.8750334 1.4702501 1.0269628 8.1941726e-39
3.9279842 1.4933006 1.0196844 5.0667505e-39
3.9803545 1.4809244 1.032048 9.9419239e-39
4.0325332 1.4834626 1.0206405 1.0124879e-38
4.0914788 1.4663986 1.0170751 1.1137943e-38
4.1005797 1.4527659 1.0440533 1.2150642e-38
3.4768119 1.5426362 1.0287124 1.0043127e-38
3.529202 1.5058167 1.0345376 9.8588059e-39
3.5752463 1.5335296 1.0202777 9.1284323e-39
3.6337943 1.5338148 1.0212762 9.4924827e-39
3.68571 1.5191959 1.0222579 7.5531571e-39
3.7173028 1.5275199 1.0268835 8.5691209e-39
3.7781155 1.5266986 1.0241319 2.5796588e-39
3.8124287 1.5318066 1.0356104 8.2832013e-40
3.8759005 1.5210501 1.0297207 2.0246983e-39
3.9148176 1.5062666 1.0193716 7.6442303e-39
3.9719319 1.5126314 1.0419586 7.4613006e-39
4.02527 1.5276188 1.017036 9.0206963e-39
4.0664558 1.5282745 1.0433722 8.6512033e-39
3.1700776 1.5818739 1.0076143 1.004245e-38
3.4713006 1.5950414 1.0249662 1.179588e-38
3.5337377 1.5810033 1.0310426 7.9233759e-39
3.5767102 1.5796604 1.0145619 1.0505529e-38
3.6125267 1.5746703 1.0414284 6.4522395e-39
3.6768367 1.5798839 1.0273395 8.2014356e-39
3.7211308 1.567565 1.0314162 9.8598933e-39
3.7798018 1.5596645 1.0302891 7.2769317e-39
3.817225 1.5881592 1.0342605 7.3698728e-39
3.8882957 1.5675564 1.0227809 3.3982735e-39
3.9195762 1.5923675 1.0028559 1.287499e-39
3.9890096 1.5630701 1.0227478 4.5117859e-39
4.0248084 1.5784003 1.0328637 7.5470236e-39
4.0733871 1.5768304 1.0196865 5.4319331e-39
3.279341 1.6302404 1.0225567 9.7622845e-39
3.3260243 1.626089 1.0324959 1.2162258e-38
3.4247954 1.6344938 1.0096827 1.0600646e-38
3.4812281 1.6325717 1.0420853 9.8659427e-39
3.5207586 1.6269357 1.0249805 1.1427484e-38
3.5845525 1.6241407 1.0258452 9.399201e-39
3.6193192 1.6322383 1.0266523 1.0690236e-38
3.6690993 1.624332 1.0292901 9.0300444e-39
3.7204084 1.613651 1.0293727 8.203616e-39
3.7837281 1.6270185 1.0427366 7.9248221e-39
3.8402612 1.6248462 1.0261471 3.8682242e-39
3.9199841 1.6496772 1.0159017 4.5010197e-39
3.9936647 1.6231202 1.0339289 3.0388264e-39
4.0662875 1.6080319 1.0488684 5.3372362e-39
3.3180273 1.6988281 1.0137254 9.3056069e-39
3.4327047 1.6704917 1.0188537 1.2818732e-38
3.4798996 1.6638201 1.0318257 1.0413705e-38
3.5255563 1.6668507 1.0240163 1.280932e-38
3.5763576 1.673901 1.0222801 1.0412975e-38
3.6357532 1.6770778 1.0295073 1.0133874e-38
3.6817575 1.6767566 1.0174793 6.1713072e-39
3.7273428 1.6713175 1.0200326 7.186541e-39
3.784214 1.6590464 1.0248184 8.7520268e-39
3.8407195 1.6562191 1.0174929 7.6471085e-39
3.9476943 1.6647441 1.0209672 1.8406686e-39
3.3079383 1.7159235 1.0032113 1.0416646e-38
3.4854085 1.7154719 1.0038998 1.0594596e-38
3.5265129 1.7360221 1.0292639 1.0138624e-38
3.5781686 1.7192558 1.0186316 9.49321e-39
3.6266463 1.7244076 1.0153949 1.2626061e-38
3.6815612 1.7142038 1.0217501 1.2260141e-38
3.7258534 1.7257949 1.0129542 1.0225749e-38
3.3203466 1.7636688 1.0137256 1.308494e-38
3.5374141 1.7741477 1.0330734 1.252706e-38
3.6266081 1.7695568 1.01579 9.1201212e-39
3.6795728 1.7795506 1.009742 8.3847212e-39
3.3262424 1.847149 1.0074346 1.0692546e-38
3.3528411 1.8076602 1.0307236 1.4196658e-38
3.470433 1.8315569 1.0138303 1.4749158e-38
3.5291445 1.8129539 1.0414208 1.7057963e-38
3.5606194 1.8456366 1.0343628 1.9823128e-38
3.6146281 1.8237488 1.0368896 7.0947013e-39
3.6740277 1.8366343 1.0057932 7.0986389e-39
3.7186916 1.8386981 1.0115314 9.1840597e-39
3.1759231 1.8681312 1.0104547 1.1967677e-39
3.2164249 1.853482 1.0209922 6.4358976e-40
3.3040884 1.8755898 1.0103612 7.7394036e-39
3.3618488 1.8597474 1.0430012 1.3273294e-38
3.5077631 1.8513532 1.0033933 1.7961208e-38
3.5770288 1.8718352 1.0036168 1.1685498e-38
3.6064315 1.8759575 1.0102057 8.2039705e-39
3.6919823 1.8911307 1.0029219 1.3086376e-38
3.7383354 1.8737023 1.0068797 1.7694668e-38
3.7581511 1.8902105 1.022571 1.0959101e-38
3.4286375 1.9335492 1.0086818 2.115836e-39
3.4731867 1.938169 1.0452334 1.1024421e-39
3.5464306 1.9073493 1.0245473 1.0697538e-38
3.5648487 1.9306426 1.0078884 1.0405548e-38
3.6260362 1.9338927 1.0119555 1.013611e-38
3.676692 1.9199452 1.0087495 9.5890518e-39
3.7363153 1.9169858 1.0277941 1.5946195e-38
3.7816596 1.923243 1.0196562 1.4929903e-38
3.8102622 1.9280441 1.0183916 1.640036e-38
3.881494 1.9272712 1.0249999 1.1604043e-38
3.287704 1.9588183 1.0152028 8.9375573e-39
3.4259827 1.9877292 1.0352732 1.8411801e-40
3.5931668 1.9803549 1.0012699 1.0692876e-38
3.6702983 1.9646735 1.0244648 1.4928125e-38
3.7399659 1.9859133 1.037873 1.2262712e-38
3.7818589 1.9798218 1.0276386 1.4655842e-38
3.8348072 1.9816988 1.0247109 1.2259478e-38
3.8591342 1.9709277 1.0192066 9.9538798e-39
3.9266558 1.965881 1.029218 1.4102323e-38
3.9735441 1.9895926 1.0102414 1.3083499e-38
3.2769251 2.0155628 1.0179709 2.2062295e-39
3.3058581 2.0085397 1.0069903 1.2711442e-38
3.4216661 2.0450096 1.0105493 1.0220016e-38
3.5680811 2.0178466 1.0127531 8.8482469e-39
3.6179574 2.0249915 1.0223259 1.0138621e-38
3.7267034 2.0167098 1.0218554 1.1519402e-38
3.7820821 2.0202358 1.0192583 1.2165848e-38
3.8271992 2.0348897 1.0328951 1.2902683e-38
3.874562 2.0284388 1.0304081 1.4467131e-38
3.9241381 2.0170207 1.0082688 1.4743725e-38
3.9720104 2.0209842 1.0411801 1.4189474e-38
3.3053346 2.0797381 1.041285 1.1141598e-38
3.355541 2.0854766 1.0351676 1.1144843e-38
3.4677148 2.0506089 1.0070651 1.4379555e-38
3.5738354 2.0840518 1.0164249 8.847514e-39
3.6936128 2.076628 1.0237037 1.6777695e-38
3.7299097 2.0785446 1.0350344 1.0229026e-38
3.7740872 2.0667772 1.022972 1.2165485e-38
3.8226948 2.0837812 1.0286784 1.20715e-38
3.870311 2.0705912 1.0223608 1.5022459e-38
3.968951 2.0832765 1.0406898 1.4835195e-38
3.3059709 2.1475792 1.0317081 1.0312206e-38
3.4949062 2.1131213 1.001333 1.4758051e-38
3.5470943 2.1196392 1.0129323 8.8478924e-39
3.5907991 2.1468196 1.0332203 8.2946934e-39
3.6400094 2.1175151 1.0136131 9.2173952e-39
3.6715798 2.1394031 1.0416883 8.8478798e-39
3.7333934 2.124537 1.019081 1.0783635e-38
3.7742875 2.1240666 1.0193521 1.1335375e-38
3.8245964 2.1293728 1.0250324 1.2806901e-38
3.8636074 2.1373191 1.0145612 1.2624301e-38
3.9666581 2.1298733 1.0247302 1.4927405e-38
3.2586732 2.1557112 1.0037147 6.7187343e-39
3.3714311 2.1615202 1.0145745 1.0405849e-38
3.4901528 2.1804304 1.0225291 8.2929095e-39
3.6202364 2.1859636 1.0199296 8.9379342e-39
3.6915512 2.1729577 1.0237968 8.8460945e-39
3.7341528 2.1705863 1.0200098 1.1151324e-38
3.779377 2.1634369 1.0353296 9.9553218e-39
3.8229036 2.1825163 1.0102335 1.142289e-38
3.9174707 2.1669533 1.0195659 1.3085653e-38
3.319814 2.2342281 1.0266646 8.9353628e-39
3.3742228 2.222302 1.0195205 1.0684918e-38
3.4222674 2.2410288 1.0342634 1.1787308e-38
3.4690375 2.2075536 1.015666 7.916574e-39
3.5151114 2.2398796 1.0184665 7.8341104e-39
3.5837288 2.2309768 1.0274612 8.4798245e-39
3.6361613 2.2153223 1.033097 8.5698552e-39
3.6575663 2.2210808 1.0488555 9.219179e-39
3.7277133 2.2229552 1.0195533 9.4921702e-39
3.7765293 2.209296 1.0065492 1.0594567e-38
3.83113 2.2194548 1.0239662 1.0688557e-38
3.9143252 2.2069182 1.0315495 1.3269316e-38
3.2499828 2.290627 1.0425625 1.0488645e-38
3.327975 2.281271 1.0179031 1.0318684e-38
3.371968 2.2823265 1.01369 1.0686034e-38
3.4035847 2.2720056 1.0428035 7.6475345e-39
3.4850533 2.2616155 1.0213473 1.0777122e-38
3.5003583 2.2686977 1.0459111 1.0225041e-38
3.5952411 2.2951767 1.0142666 9.214147e-39
3.6270523 2.2897651 1.0412169 8.0166912e-39
3.6746545 2.2738554 1.0291575 9.0311962e-39
3.7230446 2.2739458 1.0158163 9.3999802e-39
3.7743363 2.2540092 1.0210818 9.7651978e-39
3.8124914 2.2643273 1.0065902 1.1334291e-38
3.8554721 2.2838111 1.0293223 1.1703776e-38
3.9070327 2.263813 1.0030657 1.2161547e-38
3.3270147 2.3235383 1.0153716 8.9382719e-39
3.3878224 2.3275182 1.0060215 1.0871854e-38
3.4267602 2.3360331 1.0220159 7.928443e-39
3.4755821 2.3213367 1.0300368 1.2161868e-38
3.5159092 2.3240721 1.0048387 7.1872921e-39
3.5714407 2.3267212 1.0256305 8.2896922e-39
3.6319261 2.3410447 1.038587 8.3843835e-39
3.6782522 2.319036 1.024894 9.4918059e-39
3.7278318 2.3281047 1.0187324 9.9527952e-39
3.7997987 2.3488903 1.0386403 1.0316188e-38
3.8118846 2.3133419 1.0191435 9.7669774e-39
3.850219 2.3301344 1.0206373 1.1241369e-38
3.3400354 2.3626018 1.0296903 9.3084894e-39
3.3658226 2.3710613 1.0206351 1.0763842e-38
3.4134676 2.37324 1.0409275 1.1886367e-38
3.4808815 2.3813615 1.0296553 1.0593473e-38
3.5267086 2.3928068 1.0185673 9.58437e-39
3.5681791 2.3738983 1.0283148 8.3854709e-39
3.6317308 2.3732867 1.0325888 8.2007195e-39
3.6792779 2.3766928 1.0253744 8.9389936e-39
3.7119515 2.3748736 1.0249519 8.2007111e-39
3.7528942 2.3748772 1.0346854 9.9524351e-39
3.8927786 2.3898196 1.0322162 1.1332847e-38
3.2794209 2.4455261 1.004819 8.7495437e-39
3.3447316 2.426002 1.0194565 9.3102915e-39
3.3741398 2.4327958 1.0307531 1.2804349e-38
3.4306889 2.4189367 1.007454 9.3949481e-39
3.4922132 2.4262476 1.0169239 1.1609818e-38
3.5296497 2.4250453 1.0359007 1.1793078e-38
3.5697942 2.4112608 1.0454075 9.7622635e-39
3.6333148 2.4255316 1.0224258 8.4765847e-39
3.6667998 2.4185436 1.0297649 8.5698566e-39
3.7180257 2.4325209 1.0181999 8.5694964e-39
3.7813716 2.4173641 1.0358562 9.8570095e-39
3.8414443 2.4075868 1.019154 1.1794903e-38
2.0713041 2.4937999 1.0346881 4.9616419e-39
3.2862709 2.4818232 1.0109531 9.3084894e-39
3.3218513 2.4719081 1.0103786 9.2145029e-39
3.3503485 2.4693964 1.0352921 1.4012601e-38
3.4574947 2.4803689 1.0191287 1.1335012e-38
3.5166273 2.4601743 1.0178299 1.0503088e-38
3.5771337 2.4777222 1.027102 8.4791337e-39
3.6170158 2.4811251 1.0285594 9.6744091e-39
3.664243 2.474453 1.030948 8.7524443e-39
3.7160201 2.469914 1.0143902 9.671165e-39
3.880347 2.4995508 1.0301144 1.1240649e-38
2.0483346 2.5229983 1.0428292 5.06355e-39
3.2939329 2.5328395 1.0160173 1.0781459e-38
3.3399041 2.5277226 1.0417314 8.9361083e-39
3.417695 2.5115066 1.0224288 1.0420968e-38
3.4664459 2.526057 1.0344296 1.1781232e-38
3.5327542 2.5189235 1.0438777 1.3912505e-38
3.5897474 2.5228527 1.0462375 8.7538891e-39
3.6375387 2.5239029 1.0196328 9.3974606e-39
3.6727288 2.5207903 1.026162 9.2152274e-39
3.7123632 2.5449684 1.017691 1.0043905e-38
3.7772751 2.5476122 1.0194218 1.096262e-38
3.8273587 2.5321023 1.0479593 9.1183668e-39
2.0457664 2.5719957 1.0243667 5.337976e-39
3.4212575 2.5925767 1.0477947 7.4628013e-39
3.4787083 2.5727589 1.0304438 1.1602254e-38
3.5253577 2.5674343 1.0289912 1.1713876e-38
3.5643044 2.5834279 1.0427775 9.7654935e-39
3.6243579 2.5730867 1.0226924 1.1151326e-38
3.6729841 2.5811071 1.0251545 1.0135027e-38
3.7264886 2.5783982 1.0216836 1.1150621e-38
3.7738292 2.5779374 1.0034286 1.2900547e-38
3.8732438 2.5622547 1.0289134 1.0503444e-38
2.0569472 2.6221004 1.0222511 5.0606619e-39
2.1207831 2.6247623 1.0436585 4.5939552e-39
3.3478651 2.6368477 1.0208806 1.0044642e-38
3.3754413 2.6416171 1.001484 8.5702335e-39
3.4254289 2.6303337 1.0341731 8.4769505e-39
3.4702282 2.6208079 1.0228529 6.6369993e-39
3.5183606 2.6260669 1.0244386 1.0410915e-38
3.5613132 2.6436622 1.0473787 1.3180357e-38
3.6406496 2.6252143 1.0285269 9.9502785e-39
3.6728714 2.6236477 1.0145453 1.0870801e-38
3.7092087 2.622633 1.0250037 1.0229376e-38
2.0472984 2.6659093 1.0124087 4.8802321e-39
2.5698109 2.6803699 1.0241495 3.4904705e-39
2.6808882 2.6725903 1.0171797 6.0722929e-39
2.777096 2.6724718 1.0045607 2.7557852e-39
2.8968489 2.6602912 1.0068655 6.7172979e-39
3.4286051 2.6808019 1.0316285 9.9517232e-39
3.4745979 2.6861389 1.0192391 8.8504175e-39
3.5306594 2.6873996 1.018972 1.0968407e-38
3.5722697 2.6900523 1.0284166 7.3752917e-39
3.6312113 2.6774845 1.0379394 1.1242098e-38
3.6752133 2.6903415 1.0123212 1.1700561e-38
3.727839 2.6652296 1.0216109 1.4097647e-38
3.8127649 2.6607952 1.0247009 1.050524e-38
1.9342182 2.7465186 1.0226414 3.038846e-39
1.9554783 2.7155237 1.0420798 3.0395831e-39
2.0263832 2.7259281 1.025405 4.8802363e-39
2.0809407 2.7048383 1.0393255 5.0639115e-39
2.1078362 2.713908 1.0338892 5.0614102e-39
2.23423 2.7217865 1.026044 5.3282819e-39
2.2864237 2.7447839 1.0044477 2.8472647e-39
2.3077796 2.7315784 1.00466 5.6023268e-39
2.4711564 2.7488093 1.0038031 5.6952497e-39
2.5477514 2.7417936 1.0156418 5.9707562e-39
2.5683055 2.7227173 1.0167476 5.0595717e-39
2.6241066 2.738323 1.0259225 7.8996505e-39
2.6851246 2.7220383 1.0220295 9.3974046e-39
2.8262537 2.7083082 1.0248624 3.768135e-39
2.8711929 2.7266128 1.0095888 9.9405423e-39
3.0203335 2.7271771 1.014809 1.474292e-38
3.0891602 2.7181349 1.0219308 8.2796112e-39
3.4710777 2.7115057 1.022791 9.7666075e-39
3.5059733 2.7184119 1.0361265 8.6642088e-39
3.5634053 2.7307034 1.0228709 1.0963731e-38
3.6322274 2.7125139 1.0115507 1.0966245e-38
3.6607265 2.7281246 1.0199596 1.3179646e-38
1.9226282 2.7941256 1.0458946 2.6725859e-39
1.9767902 2.7728648 1.0239924 2.8541073e-39
2.0377634 2.7921772 1.0186964 4.8798734e-39
2.0803411 2.7641037 1.045357 5.063543e-39
2.2849283 2.7750049 1.0173737 5.1442339e-39
2.3237581 2.7785819 1.0242521 4.5921377e-39
2.3974168 2.7792039 1.0164894 5.6945308e-39
2.4382889 2.7594798 1.0296608 1.7459548e-39
2.5193288 2.7646475 1.0139445 6.1551447e-39
2.5645843 2.782443 1.0366442 4.5010281e-39
2.6391163 2.7925544 1.0185678 8.0084039e-39
2.6848342 2.7747784 1.0306553 5.8900624e-39
2.7151353 2.7692351 1.0096166 3.5869948e-39
2.781724 2.7751393 1.0229408 6.5318389e-39
2.8046112 2.7785351 1.0072842 8.0141562e-39
2.8830068 2.7757256 1.0112113 1.1051559e-38
2.9203608 2.7735944 1.023545 6.8948719e-39
2.9501479 2.793983 1.0103595 6.6265527e-39
3.0850847 2.7805591 1.0320349 9.4806515e-39
3.2422793 2.7662942 1.0118375 7.0760177e-39
3.3142557 2.7610826 1.0133125 7.5377484e-39
3.4388251 2.7760975 1.0394981 9.3110383e-39
3.48159 2.7834868 1.0263445 1.078255e-38
3.5171149 2.76932 1.0229309 1.106022e-38
3.5814526 2.7717872 1.0318289 1.0693244e-38
3.6137147 2.7699587 1.0282109 1.1704893e-38
3.6853654 2.776371 1.0259409 1.225658e-38
3.703275 2.7693174 1.0236611 1.3456246e-38
1.8997989 2.8203058 1.0380906 2.8558855e-39
1.9319513 2.8397799 1.040809 3.0402866e-39
2.035871 2.828928 1.0065954 3.1299599e-39
2.0815928 2.8065977 1.0341066 4.6955017e-39
2.1008756 2.8484375 1.020813 5.5238106e-39
2.2435744 2.8290927 1.0060439 4.5114664e-39
2.2959743 2.8353493 1.0114373 3.6806043e-39
2.3983405 2.8423464 1.0494106 4.0411234e-39
2.4136207 2.804476 1.0014008 5.1435151e-39
2.4532163 2.8101482 1.0379001 2.8494227e-39
2.5277004 2.8269091 1.0005127 1.5615986e-39
2.5560522 2.822401 1.0142326 1.0230767e-38
2.6243713 2.8208904 1.0231624 7.1657036e-39
2.6692913 2.8129017 1.0313493 5.6045058e-39
2.7288737 2.8122547 1.0180621 4.8716043e-39
2.7798288 2.8215442 1.027758 4.041852e-39
2.8245401 2.8281682 1.0283782 4.5964607e-39
2.8782625 2.8246047 1.0144074 6.8094964e-39
2.9239769 2.8237715 1.0231812 7.092951e-39
2.9733801 2.8182943 1.010883 5.0581676e-39
3.0186796 2.8296909 1.0211967 5.7006349e-39
3.0773304 2.8346188 1.0149012 5.2404092e-39
3.1338179 2.8253567 1.0337012 6.8105992e-39
3.1811986 2.8346748 1.028446 7.1754076e-39
3.2386057 2.8306346 1.0203246 7.2618411e-39
3.2921107 2.8347528 1.011047 7.542737e-39
3.3224888 2.8354888 1.0103796 5.2429232e-39
3.3711004 2.8384204 1.0218549 6.9009844e-39
3.4162581 2.8369408 1.0249329 8.9285469e-39
3.4671552 2.8251262 1.0348932 9.8620317e-39
3.5335617 2.8333049 1.0111368 1.0135756e-38
3.582746 2.814465 1.027555 1.1336094e-38
3.6146607 2.8231556 1.0158479 1.2718303e-38
1.9601427 2.8784647 1.0227522 3.223596e-39
2.0242434 2.8997543 1.0340921 5.340134e-39
2.0828214 2.8814437 1.0300673 4.8798888e-39
2.272716 2.8689985 1.0062397 2.1125779e-39
2.3269029 2.8804677 1.0196867 5.0588682e-39
2.3512328 2.8585339 1.0300663 3.9503753e-39
2.4126227 2.8912566 1.0198512 2.9412778e-39
2.7264233 2.8659286 1.0330019 2.3884768e-39
2.7632413 2.8736043 1.0313187 3.2160739e-39
2.8663645 2.8575017 1.0322201 4.1333246e-39
2.9273515 2.8779969 1.0214722 5.9833356e-39
2.9755962 2.8866813 1.0163245 5.1539547e-39
3.027317 2.8733408 1.0230271 4.7837345e-39
3.0748458 2.8875144 1.0169836 7.1815229e-39
3.1259513 2.8736053 1.0174389 6.4389286e-39
3.1675658 2.8634706 1.0198584 4.6983772e-39
3.2208042 2.8664646 1.015712 8.1953063e-39
3.2644615 2.8824558 1.016786 5.3372712e-39
3.3241305 2.8775663 1.022661 5.6145713e-39
3.3798275 2.8745816 1.029106 6.9056591e-39
3.4261525 2.8915191 1.0235184 6.7133799e-39
3.4887037 2.8942752 1.0422628 6.539766e-39
3.5101423 2.8692887 1.0307057 9.8623932e-39
3.569536 2.8686056 1.0217875 1.0508141e-38
3.6033669 2.8734951 1.017879 1.1611598e-38
3.6614623 2.8818853 1.024201 1.4655819e-38
1.9389575 2.9378219 1.0205326 3.4065496e-39
2.0082674 2.9196999 1.0313753 4.7894644e-39
2.0592003 2.9241993 1.0261254 4.9720816e-39
2.2233694 2.9250479 1.022954 6.542968e-39
2.2574806 2.9434984 1.0203834 8.279572e-40
2.3238139 2.9289298 1.0253328 3.4029622e-39
2.3864186 2.9402261 1.0487745 8.268852e-40
2.4260454 2.9428446 1.0280073 6.4321842e-40
3.0776262 2.9215691 1.0276735 4.4091996e-39
3.1304841 2.9231381 1.0200417 5.2439896e-39
3.1832268 2.9150791 1.0265776 4.3206053e-39
3.2252707 2.9194098 1.0223114 5.3322195e-39
3.2745829 2.9241021 1.0220151 5.7967962e-39
3.3208108 2.9264646 1.0251832 4.0436513e-39
3.3697028 2.9366667 1.0135009 4.5057281e-39
3.4224458 2.9276037 1.0225583 6.1659473e-39
3.4671221 2.942929 1.0295675 3.5823579e-39
3.5303104 2.9193637 1.0235512 8.5684384e-39
3.5793891 2.9188199 1.0259434 9.3971173e-39
3.6222515 2.9289663 1.0209929 8.2957934e-39
3.6682761 2.9410434 1.0294291 1.0608934e-38
1.924531 2.9881804 1.0190892 3.2232387e-39
2.0237672 2.9676676 1.0304196 5.0646234e-39
2.1991832 2.9577534 1.0310614 4.4088409e-39
2.2181458 2.9855633 1.0294232 3.0309511e-39
2.2801793 2.966665 1.0243005 3.2239436e-39
2.333303 2.9689572 1.0128262 6.1562447e-39
3.2481213 2.9683785 1.0284752 6.7083198e-39
3.3115718 2.9523892 1.0165757 3.4908363e-39
3.3733149 2.964148 1.0346075 7.4527134e-39
3.4291272 2.9698005 1.040465 3.9565074e-39
3.4783394 2.9670308 1.0280129 4.968853e-39
3.518008 2.9751976 1.0173174 6.5372437e-39
3.5757647 2.9715133 1.0218747 5.8951281e-39
3.6068969 2.9669805 1.0303512 8.9368636e-39
3.6807206 2.9618104 1.036299 9.6737112e-39
3.7278035 2.9876976 1.008935 9.4979505e-39
1.8813305 3.0460715 1.025376 3.317235e-39
2.0062094 3.0186746 1.0247589 5.341562e-39
2.2315085 3.0185444 1.0230169 2.7597396e-39
2.2828403 3.0438714 1.0315247 1.8374316e-39
2.3355968 3.0315065 1.0135162 7.0957971e-39
3.5772183 3.0025761 1.0446333 7.44628e-39
3.6249945 3.0389252 1.0109425 5.611361e-39
3.67084 3.0205336 1.0262595 7.001833e-39
3.7169516 3.0309901 1.0147984 6.9074696e-39
1.8324084 3.0873094 1.003798 9.1909204e-40
1.8878889 3.0885823 1.0167898 2.210893e-39
1.9272207 3.0628529 1.021102 3.6849245e-39
1.984511 3.0564029 1.0145903 4.9738627e-39
2.0297117 3.0719976 1.026695 5.2490258e-39
2.0566976 3.0551295 1.026023 4.7898554e-39
2.2244582 3.0613136 1.0253668 2.6675468e-39
2.2729945 3.0730186 1.030056 4.3238171e-39
2.3162613 3.066505 1.0102894 8.6601899e-39
3.638278 3.0885735 1.0077581 8.8565328e-39
3.6725693 3.0923858 1.0428529 4.876649e-39
1.8661824 3.1127696 1.0180941 3.4958599e-39
1.9847019 3.1195779 1.0139427 4.3281541e-39
2.1904902 3.1388023 1.0224011 2.7608186e-39
2.2072885 3.1002507 1.0328438 2.571775e-39
3.7723913 3.1065221 1.0495013 8.1096099e-39
2.1890717 3.184257 1.0245361 3.2210821e-39
2.2943971 3.1568773 1.0468366 1.8374344e-39
2.3456872 3.1641121 1.0006958 3.2153214e-39
2.0039797 3.2170322 1.023826 4.5992998e-40
2.3189936 3.2127934 1.0099083 5.9808063e-39
2.2176681 3.2618129 1.0293448 2.7611745e-39
2.3300292 3.2720942 1.0320957 6.7219937e-39
2.2318513 3.3361678 1.0437165 2.1179786e-39
1.9189391 3.3694143 1.0380142 2.7629836e-39
2.1836469 3.3994026 1.0101006 5.5210599e-40
2.3992116 3.3894584 1.0499452 4.5096531e-39
2.402245 3.3542259 1.0190533 4.234148e-39
1.9367373 3.4070442 1.013941 9.9499197e-39
2.2245204 3.4039674 1.0284634 1.2885794e-39
2.2558179 3.4297233 1.0064236 1.9321426e-39
2.4205675 3.4203181 1.0228187 2.3920487e-39
2.4609594 3.4488833 1.0307957 1.0123611e-39
1.9343481 3.4711576 1.0159615 8.2724814e-40
2.2414081 3.4817677 1.0075787 2.0239809e-39
2.2909942 3.4773264 1.0489576 1.104907e-39
2.3134685 3.4848285 1.0144806 2.0225417e-39
1.9154992 3.5263677 1.0211186 3.6842379e-40
1.9082345 3.5669069 1.0234424 1.0973409e-38
1.9107215 3.6289799 1.0455829 5.1564378e-39
2.5464053 -1.6028336 1.0519698 5.1582525e-39
2.5840685 -1.6098138 1.0528715 4.8823775e-39
2.6266062 -1.6061465 1.0596282 5.0660793e-39
2.7194102 -1.6163551 1.0815488 3.2253995e-39
2.7802887 -1.6050265 1.069114 2.3023614e-39
2.6196692 -1.5936805 1.0626903 6.9092562e-39
2.6684737 -1.574815 1.0632899 5.2511712e-39
2.731674 -1.5710741 1.0739568 5.1568218e-39
2.7645149 -1.5639292 1.0717872 5.3422906e-39
2.8175623 -1.569993 1.0772051 2.8559037e-39
2.8752449 -1.5713798 1.0770795 2.3027271e-39
2.9134617 -1.5623038 1.0795581 2.3949214e-39
2.9692824 -1.5501417 1.0988094 2.8573302e-39
2.6723452 -1.5451187 1.0659992 4.0529685e-39
2.7192304 -1.5251732 1.0570811 7.8297552e-39
2.7683244 -1.5495076 1.0704358 2.7618948e-39
2.8325777 -1.5269744 1.0803442 5.2508055e-39
2.8677766 -1.5338203 1.0805954 4.3288618e-39
2.9124157 -1.5288652 1.0777637 2.5767973e-39
2.9681869 -1.5293666 1.084206 3.405479e-39
3.0156376 -1.5196242 1.0841428 1.6570018e-39
3.0796714 -1.5204833 1.0890777 4.4192722e-39
3.124676 -1.5172117 1.0809216 3.0384985e-39
3.1770725 -1.5229636 1.0935498 5.8036401e-39
3.2118237 -1.5156459 1.0908363 9.1248254e-39
3.2676606 -1.525209 1.0919273 8.0145346e-39
2.7469575 -1.497381 1.061506 6.9085135e-39
2.8152783 -1.4734228 1.0688877 7.83083e-39
2.8779039 -1.4774534 1.0676769 4.7884022e-39
2.981956 -1.4735169 1.0912751 6.3550006e-39
3.0296545 -1.4771252 1.0874166 5.8003975e-39
3.0821543 -1.4771447 1.0801475 6.4471879e-39
3.132447 -1.473979 1.0862545 7.0021805e-39
3.1634178 -1.4614302 1.0845646 8.2936256e-39
3.2331724 -1.4672016 1.0770292 1.0870423e-38
3.2687402 -1.4914396 1.0982575 6.1713451e-39
3.3831341 -1.4607664 1.0847638 1.0041027e-38
3.8536706 -1.4658351 1.0535715 6.2627924e-39
4.0302439 -1.4518379 1.0817846 7.3651911e-39
2.8466148 -1.4435354 1.0755025 7.6453429e-39
2.8745213 -1.4256477 1.0755403 7.5535494e-39
2.9184937 -1.4364604 1.0752587 7.091844e-39
2.9672472 -1.4238939 1.074645 7.3673687e-39
3.0368299 -1.4212885 1.0579937 8.1974741e-39
3.1220675 -1.4325905 1.0795145 7.0939992e-39
3.1628611 -1.4424155 1.0937377 8.5659077e-39
3.2180662 -1.4293505 1.0699352 9.6657911e-39
3.2707307 -1.4370484 1.0963031 4.8834957e-39
3.8675563 -1.4235992 1.0700904 5.1578854e-39
3.9312706 -1.4441161 1.056578 7.642864e-39
3.9597111 -1.4199204 1.0516937 5.2497251e-39
4.0261526 -1.4146335 1.0662349 3.6838441e-39
4.4202409 -1.4018611 1.0760174 8.5702321e-39
2.8900769 -1.3907008 1.0817353 7.3695043e-39
2.96982 -1.3766943 1.0858327 7.3687854e-39
3.0111794 -1.3694872 1.0709659 7.4620699e-39
3.0808702 -1.3859701 1.0658302 7.5546172e-39
3.1173329 -1.3699363 1.0854282 6.7230587e-39
3.1671255 -1.3790996 1.0664759 6.7245048e-39
3.2022023 -1.3656704 1.0688859 6.4482851e-39
3.2672842 -1.3550557 1.0888153 4.4181988e-39
3.3165822 -1.3740555 1.0729585 1.714325e-38
4.3203754 -1.3746576 1.0556345 6.4468431e-39
4.3896689 -1.381668 1.0938784 7.0043385e-39
2.9600217 -1.3471267 1.0751507 7.6449814e-39
3.1585829 -1.3366846 1.067566 6.7230839e-39
3.2084763 -1.3062767 1.0660454 2.2123294e-39
3.283 -1.3121765 1.0732104 8.0148709e-39
3.3002245 -1.3406609 1.0905404 4.6983758e-39
4.2445168 -1.3157943 1.0635169 8.5637189e-39
4.2680421 -1.3209926 1.0622588 7.0893203e-39
4.3234253 -1.3208562 1.072024 6.7227028e-39
4.3679929 -1.3266703 1.0643197 5.4341261e-39
3.2770286 -1.2751156 1.0747892 4.6979876e-39
3.3229868 -1.2771381 1.0775276 4.416754e-39
4.1890879 -1.2775106 1.0568174 4.9717061e-39
4.2249479 -1.2669336 1.0939192 5.4298059e-39
4.2773151 -1.2748907 1.0573589 7.0000071e-39
4.3406124 -1.2790318 1.0724131 7.0922069e-39
4.3568287 -1.28475 1.0598722 5.0653422e-39
3.1483333 -1.2462816 1.0544306 1.5626426e-39
3.2322752 -1.2336049 1.0815667 3.404386e-39
3.286181 -1.2224163 1.0800692 3.5920184e-39
3.3184068 -1.2280257 1.0728419 3.9600751e-39
3.3865206 -1.2223907 1.0716584 7.2823393e-39
4.1739087 -1.2460196 1.0602181 7.0875084e-39
4.2324777 -1.2315236 1.0769992 5.5259518e-39
4.2865825 -1.2158505 1.0767816 8.2911061e-39
4.3264813 -1.2217336 1.0681523 5.6185146e-39
4.3630142 -1.2344143 1.0766008 6.816692e-39
3.1807795 -1.1816373 1.0783648 3.8678934e-39
3.2231712 -1.1752181 1.0675172 3.0388418e-39
3.2708764 -1.1644368 1.0762337 5.5248939e-39
3.3303189 -1.1763201 1.0743018 5.3415732e-39
3.3780527 -1.1671326 1.074779 6.9078031e-39
3.4226794 -1.169414 1.0782135 5.7082061e-39
3.4658401 -1.1650076 1.0591781 9.7658802e-39
3.5087843 -1.1598876 1.0796442 6.4461271e-39
3.5547729 -1.1564875 1.0658576 1.1055925e-38
3.6666875 -1.1680273 1.0979841 3.6860413e-39
3.7734704 -1.1731548 1.0885652 5.2504495e-39
3.8181491 -1.1826727 1.0613585 6.7169504e-39
4.0258408 -1.1622773 1.0899657 3.4072782e-39
4.0892496 -1.1682928 1.067227 2.1140255e-39
4.1308155 -1.1607739 1.0519915 7.0936307e-39
4.2397342 -1.1753943 1.0911165 7.8286664e-39
4.2631149 -1.1721978 1.0842712 8.5684202e-39
4.3226442 -1.1779886 1.081908 7.0922055e-39
4.3804111 -1.1839194 1.0791243 6.7248636e-39
3.1738 -1.1329105 1.0604812 2.573912e-39
3.2240267 -1.1170765 1.0650327 4.790535e-39
3.2730772 -1.1160821 1.0760372 3.7749565e-39
3.3453126 -1.1280826 1.0613018 4.234162e-39
3.3778098 -1.1135869 1.0597744 5.2518887e-39
3.4083095 -1.1210194 1.0592115 6.632305e-39
3.4681871 -1.1222512 1.0632352 6.3557223e-39
3.5258453 -1.1307837 1.0681549 6.2667651e-39
3.5805352 -1.1237496 1.0689497 7.1015116e-39
3.6202037 -1.1310962 1.0781565 5.1618595e-39
3.6711462 -1.122991 1.0677557 6.7244656e-39
3.7385812 -1.1338066 1.0851882 5.2525865e-39
3.7720981 -1.126905 1.0827129 5.7085284e-39
3.8247757 -1.1290435 1.076807 7.186164e-39
3.8693333 -1.1024381 1.0959783 6.4471402e-39
3.9158826 -1.1255741 1.0638795 2.9455896e-39
4.0812449 -1.1309712 1.0652164 6.262812e-39
4.120398 -1.1039395 1.0652758 7.6493072e-39
4.2405005 -1.1082854 1.0710443 9.4885745e-39
4.2803755 -1.1155415 1.0887718 8.1060085e-39
4.3150849 -1.1259815 1.0740634 7.7372176e-39
4.3643899 -1.1313599 1.0789633 5.8954588e-39
3.2465789 -1.0948845 1.0513809 9.6733132e-39
3.2614517 -1.0971837 1.0522603 5.3379634e-39
3.3193254 -1.091186 1.0639359 5.8972511e-39
3.4877963 -1.0841693 1.0819143 7.0986823e-39
3.5418239 -1.0968804 1.0762055 3.585941e-39
3.5732095 -1.0894729 1.0903287 3.407274e-39
3.6418257 -1.0613446 1.0913616 6.4467983e-39
3.6775403 -1.0732942 1.0510178 7.9201263e-39
3.7146192 -1.0622892 1.0970639 4.605408e-39
3.7613595 -1.0756727 1.0718538 5.250074e-39
3.8256822 -1.0876248 1.078428 7.7396965e-39
3.8827157 -1.0802009 1.0802432 8.7545981e-39
3.9215016 -1.0800273 1.0786355 5.4409729e-39
4.0251198 -1.069613 1.0800167 4.1448545e-39
4.0649276 -1.0660993 1.0895054 5.3412313e-39
4.1219115 -1.0887589 1.0603987 7.8319146e-39
4.180738 -1.0684054 1.0863973 8.1070665e-39
4.275847 -1.0772489 1.0765089 9.580061e-39
4.3233781 -1.0727937 1.0772498 7.7375736e-39
4.3825865 -1.089658 1.0693381 7.2794737e-39
3.7171688 -1.0325323 1.0715933 3.9596995e-39
3.7561331 -1.0378238 1.0754665 5.985823e-39
3.8315539 -1.0337957 1.0802025 7.1876508e-39
3.8947935 -1.046663 1.0880668 7.9262626e-39
3.9381008 -1.0229601 1.0726213 4.8838306e-39
3.997431 -1.0034941 1.0986456 8.5698664e-39
4.021616 -1.021313 1.0702648 5.8951071e-39
4.0661788 -1.0285091 1.0777308 5.2515271e-39
4.1162405 -1.0236762 1.0754584 8.199981e-39
