# .PCD v0.7 - Point Cloud Data file format
VERSION 0.7
FIELDS x y z rgb
SIZE 4 4 4 4
TYPE F F F F
COUNT 1 1 1 1
WIDTH 1067
HEIGHT 1
VIEWPOINT 0 0 0 1 0 0 0
POINTS 1067
DATA ascii
-0.88692296 -2.0664885 1.1306789 1.8250443e-38
-0.82207698 -2.0731697 1.1282986 2.1941484e-38
-0.78520536 -2.0682437 1.135851 2.157378e-38
1.6575133 -2.098556 1.1258729 1.659541e-39
3.6983542 -2.0652814 1.1226915 2.1197736e-39
3.7585726 -2.0618143 1.1198342 2.6707726e-39
3.8334765 -2.0564575 1.1220863 4.602555e-39
3.8930221 -2.099401 1.1466073 1.1887813e-38
3.9078069 -2.0815232 1.1150172 6.5339675e-39
3.9717877 -2.0763755 1.1237506 5.6134587e-39
4.0350704 -2.0802696 1.110533 4.9702487e-39
4.086113 -2.0748925 1.13021 3.1277991e-39
-2.1403682 -2.0037639 1.127681 1.179239e-38
-2.0645471 -2.01054 1.1246309 1.0411981e-38
-2.0052714 -2.008441 1.1177833 9.3974536e-39
-1.9676645 -2.0198855 1.117764 9.3049147e-39
-1.9427211 -2.0183134 1.109478 9.1208864e-39
-1.8576483 -2.017601 1.1095828 8.1989455e-39
-1.6839477 -2.0063891 1.1409731 1.6871104e-38
-1.376493 -2.0138445 1.1369246 1.9359298e-38
-1.1994299 -2.0291333 1.1297555 1.6227546e-38
-1.0914164 -2.0131679 1.1337714 1.8623866e-38
-0.97640502 -2.0404208 1.1455634 1.3828725e-38
-0.89119315 -2.0391002 1.1294312 2.1848572e-38
-0.84679389 -2.040144 1.104404 2.1573417e-38
3.7338548 -2.005976 1.1184258 3.2196444e-39
3.828414 -2.0178695 1.1325204 8.9263497e-39
3.8822346 -2.0273442 1.1127522 6.62544e-39
3.9334953 -2.0300817 1.1126919 5.8896813e-39
3.9881768 -2.0114594 1.1255603 5.9815126e-39
4.0379138 -2.0348353 1.1276385 6.442132e-39
4.0788145 -2.0256441 1.1308548 7.8225343e-39
-2.7185574 -1.9574277 1.127575 2.1199949e-38
-2.6608396 -1.9572275 1.1441319 1.8060592e-38
-2.6334019 -1.9713366 1.1295415 2.0642781e-38
-2.5856178 -1.9604009 1.1236321 1.8707414e-38
-2.5178285 -1.9784579 1.1225424 1.778438e-38
-2.4856613 -1.9602009 1.1241831 1.7508861e-38
-2.4343164 -1.9671141 1.1318039 1.4743357e-38
-2.3706105 -1.9621489 1.1181885 1.4190184e-38
-2.3258302 -1.9721094 1.1274166 1.2992729e-38
-2.2667048 -1.9741951 1.1177509 1.2347361e-38
-2.2227104 -1.9774108 1.1248556 1.18871e-38
-2.1703358 -1.9787856 1.127432 1.0779675e-38
-2.1161306 -1.9754759 1.1297778 9.7666117e-39
-2.0579779 -1.9886826 1.1187162 9.3967502e-39
-2.039217 -1.9794416 1.1156242 8.9375741e-39
-1.9547721 -1.993252 1.1274245 9.6758622e-39
-1.9074759 -1.9980888 1.1059818 8.6595369e-39
-1.8807564 -1.9589546 1.1168035 1.0877637e-38
-1.8295774 -1.9790468 1.1215187 1.1429387e-38
-1.78133 -1.9611037 1.1468694 1.3749056e-38
-1.7232908 -1.9820166 1.1344026 1.4378592e-38
-1.6803864 -1.9735798 1.1278589 1.6325129e-38
3.6473734 -1.9887855 1.1376204 2.2101924e-39
3.6834743 -1.9602898 1.1243253 2.7576082e-39
3.733041 -1.9613323 1.118515 8.4650254e-39
3.8300769 -1.970778 1.1105266 9.3873166e-39
3.8878112 -1.9881788 1.1462957 9.4791535e-39
3.9348211 -1.9760206 1.1195345 8.467168e-39
3.9797614 -1.9676985 1.1285642 7.4541147e-39
4.041894 -1.9719906 1.1272399 8.3739074e-39
4.0930004 -1.9615636 1.1395432 9.2029338e-39
-2.9365411 -1.9175978 1.1332502 1.8430841e-38
-2.8835919 -1.9258578 1.1223303 2.0737173e-38
-2.8257616 -1.9319078 1.1215398 2.0831169e-38
-2.7895832 -1.9193084 1.1292982 1.9264918e-38
-2.7272904 -1.9341364 1.119903 2.0737876e-38
-2.6691496 -1.9304355 1.1253569 1.990775e-38
-2.6182275 -1.9345804 1.1148211 1.9722983e-38
-2.5772135 -1.9317768 1.1219869 1.7787955e-38
-2.5138149 -1.9308439 1.1060284 1.732374e-38
-2.4663973 -1.9418064 1.1352501 1.4650435e-38
-2.4339855 -1.9338689 1.1241628 1.3455493e-38
-2.3920584 -1.9384916 1.1287 1.3177462e-38
-2.3152878 -1.9432434 1.1407558 1.0505239e-38
-2.2920933 -1.9334848 1.1200514 1.1795259e-38
-2.2270498 -1.9460155 1.1255298 1.0874747e-38
-2.1787035 -1.9340973 1.125443 9.6765657e-39
-2.1400552 -1.9361365 1.1197493 9.6751307e-39
-2.0867243 -1.9463881 1.1021636 9.9524379e-39
-2.0377548 -1.9415475 1.1328924 1.1518699e-38
-1.9362105 -1.9369041 1.1350772 1.3456996e-38
-1.7837605 -1.9464713 1.1431639 1.4751688e-38
-1.7071311 -1.9495809 1.1343915 1.8068199e-38
-1.6740384 -1.9426014 1.1431897 1.7791613e-38
3.648406 -1.9411732 1.1387633 2.2076757e-39
3.7321107 -1.9167202 1.1334876 8.6526537e-39
3.7849946 -1.9237446 1.1234742 8.9270742e-39
3.8309047 -1.910584 1.1234446 9.7557432e-39
3.8681855 -1.924922 1.1026472 1.0124166e-38
3.9207091 -1.9395888 1.1114713 9.9404876e-39
3.9772639 -1.9244934 1.1203932 7.5463187e-39
4.0308714 -1.9148128 1.1430622 7.1775278e-39
4.0710177 -1.9226635 1.1047412 7.5452383e-39
4.1228514 -1.9142703 1.1226056 7.453756e-39
4.182694 -1.906508 1.1067419 7.8207308e-39
-2.8148496 -1.8769681 1.1029977 1.9820237e-38
3.6474354 -1.8969183 1.1214629 6.9927792e-39
3.6820354 -1.8667041 1.1250628 7.6363536e-39
3.8038063 -1.8570254 1.1120681 9.3884068e-39
3.8727369 -1.8766446 1.102489 9.8508073e-39
3.9102933 -1.8937864 1.1344632 9.0206921e-39
3.9848342 -1.877362 1.1309421 8.006564e-39
4.0089321 -1.8680862 1.1440794 7.2697192e-39
4.0515146 -1.8794146 1.1475329 7.912925e-39
4.1271381 -1.8795342 1.1267338 7.3637099e-39
3.6809871 -1.817547 1.1076237 7.8228874e-39
4.0147524 -1.8385513 1.1373442 7.4537574e-39
4.0507793 -1.8289803 1.1479753 7.3622764e-39
3.6453226 -1.7689019 1.1136473 8.098052e-39
3.6447124 -1.7291936 1.1139603 8.0047647e-39
-2.84112 -1.5816503 1.1216226 2.2493905e-38
-3.0037575 -1.5000353 1.1015635 2.2861262e-38
4.1920004 -1.3584933 1.1138744 8.8446274e-39
-3.7448549 -1.3187444 1.1368904 1.9632264e-38
3.9708056 -1.3122593 1.1422832 9.2127134e-39
4.0930004 -1.3274734 1.1499382 9.3027497e-39
4.1420879 -1.3118291 1.1267791 8.5658727e-39
4.1920004 -1.3265543 1.1138744 1.0034858e-38
-3.7784793 -1.2781935 1.1436265 1.8534561e-38
-3.7493691 -1.2966096 1.100944 1.9632269e-38
3.9320164 -1.2843717 1.1193432 9.3030832e-39
3.9797475 -1.2809358 1.1443915 1.049513e-38
4.0169673 -1.2975464 1.1279438 9.9459288e-39
4.0713158 -1.2841244 1.1402564 1.0220335e-38
4.1758966 -1.2817702 1.1168714 9.2991063e-39
3.8706884 -1.2314842 1.120306 9.6704238e-39
3.9204876 -1.2185745 1.1211965 9.6657266e-39
3.9870994 -1.2321577 1.1440828 1.0771697e-38
4.0129843 -1.2282529 1.1215633 1.0956091e-38
4.1189032 -1.2273788 1.1280178 9.3898572e-39
4.1920004 -1.2307372 1.129844 1.1232324e-38
3.8709042 -1.1647899 1.1396337 1.1139041e-38
3.9164598 -1.1781183 1.1228403 1.1415671e-38
3.9908307 -1.1688027 1.1366682 1.1047932e-38
4.0470362 -1.1676052 1.1109147 1.1418153e-38
4.0546722 -1.1688693 1.1188676 1.1416715e-38
4.1210103 -1.1783072 1.1239519 1.0863543e-38
4.1810541 -1.1822613 1.1331055 9.9423093e-39
3.9270751 -1.1202662 1.1146573 1.1876604e-38
3.9933925 -1.1112622 1.1322678 1.1969181e-38
4.0078239 -1.1337799 1.1406065 1.1325221e-38
4.0661359 -1.1163577 1.1194289 1.298872e-38
4.136817 -1.1257168 1.1141275 1.0035583e-38
4.1711655 -1.1344521 1.1409888 1.0310726e-38
4.2304382 -1.1156512 1.1325731 1.4560047e-38
3.9808235 -1.0758954 1.1231406 1.1604741e-38
4.0250301 -1.0860853 1.1280293 1.2799303e-38
4.0697699 -1.0716888 1.1334214 1.2715431e-38
4.1337724 -1.0717552 1.1227244 1.0402229e-38
4.1919651 -1.0636284 1.1369848 8.6490608e-39
4.2200193 -1.0838497 1.1324726 9.4816913e-39
4.0342927 -1.0351952 1.1298351 1.1239582e-38
4.0555854 -1.021383 1.131408 1.0125972e-38
4.1237493 -1.0357269 1.1279665 1.1238475e-38
4.1669002 -1.0134592 1.1262649 1.0586591e-38
4.2132163 -1.021922 1.1240909 9.7593782e-39
4.2679982 -1.0190282 1.1472135 7.8236175e-39
4.0508423 -0.95877504 1.1192878 1.0862458e-38
4.1257768 -0.96822566 1.1287946 1.0955374e-38
4.1757798 -0.9681145 1.1206827 1.0959714e-38
4.2346516 -0.97286749 1.1425292 9.3898446e-39
4.2582874 -0.98657268 1.1000251 6.7158826e-39
-0.7345854 -0.91861987 1.1143005 5.6210552e-39
4.0420427 -0.92230427 1.140205 1.022143e-38
4.0667944 -0.92245603 1.1238698 1.0405817e-38
4.1261215 -0.9169839 1.1266627 1.1232681e-38
4.1857371 -0.92541212 1.1394861 1.0311088e-38
4.2270732 -0.92754388 1.1069038 8.3771584e-39
4.2596002 -0.931467 1.1286788 9.480964e-39
-0.83982778 -0.8766228 1.1163881 7.8301573e-39
-0.72763538 -0.8931455 1.1422393 1.2164047e-38
3.9855006 -0.88315582 1.1428115 9.9491953e-39
4.1295257 -0.85226226 1.1406938 1.0313627e-38
4.1749239 -0.88764316 1.1340643 1.0405448e-38
4.2272277 -0.89136833 1.1266822 9.3920208e-39
4.27776 -0.87258959 1.1238607 8.8370533e-39
4.1966214 -0.84553266 1.1252812 9.2962266e-39
4.2252989 -0.81200171 1.1158072 8.5604875e-39
4.2659874 -0.83046192 1.1299522 7.2726241e-39
4.2511821 -0.78148067 1.1243113 6.7212636e-39
-1.8238871 -0.69397175 1.1235864 1.2361046e-38
-1.7953115 -0.67375374 1.1120631 1.1347622e-38
4.9921541 -0.69944531 1.1174986 6.2627966e-39
4.9238811 -0.63555855 1.1013097 9.7571852e-39
4.8579402 -0.57357359 1.1035297 8.4746972e-39
4.2726269 -0.37046084 1.1068262 9.3945754e-39
3.9795277 -0.33184442 1.1154412 9.5789736e-39
4.0752082 -0.34260079 1.1109995 8.4751554e-39
4.112618 -0.32038042 1.1091777 9.1157996e-39
4.2193646 -0.3298955 1.1296977 9.8519269e-39
4.2705002 -0.30676836 1.1242952 9.9441254e-39
4.1442695 -0.27194583 1.1210908 8.3807625e-39
4.1811914 -0.28988054 1.1260852 8.7473829e-39
4.2305045 -0.26901808 1.122882 1.0311088e-38
4.2742562 -0.26594552 1.1238508 1.0953919e-38
4.3659172 -0.27595994 1.1047097 8.3775199e-39
4.1433768 -0.20977412 1.1113657 1.0401478e-38
4.1734686 -0.2165467 1.1360936 1.0678413e-38
4.2282376 -0.22745992 1.1263721 1.0769901e-38
4.2694054 -0.21627057 1.1273372 1.0769525e-38
4.3128924 -0.22609413 1.1226017 1.0494383e-38
4.4427605 -0.23193271 1.1170613 6.5379402e-39
4.1347909 -0.17059408 1.1310024 1.0494383e-38
4.185297 -0.18185869 1.1265485 9.9412219e-39
4.2286162 -0.16415988 1.1160493 1.0033066e-38
4.2615228 -0.17642285 1.1155599 1.0125609e-38
4.3295031 -0.17809713 1.1219152 9.2058078e-39
4.381012 -0.19925013 1.1029611 1.0676978e-38
4.1252789 -0.10509184 1.1257639 4.2320138e-39
4.1901612 -0.13086894 1.1307148 1.0125252e-38
4.2215486 -0.12872577 1.1271917 8.1030658e-39
4.2804675 -0.12251774 1.1250402 8.7448507e-39
4.3255177 -0.11946401 1.1189539 7.4591412e-39
4.356163 -0.12739766 1.1065758 6.449308e-39
-3.556735 -0.052344024 1.1156765 2.2125522e-38
-3.4718995 -0.060065672 1.1218348 2.0465996e-38
4.0881796 -0.075144142 1.105023 4.2384528e-39
4.1818876 -0.081128038 1.1195912 9.9441016e-39
4.2409244 -0.078562438 1.1303506 6.99854e-39
4.2867608 -0.082930863 1.1382847 5.3390508e-39
4.3317409 -0.085563548 1.1244025 7.6388619e-39
4.3738394 -0.076325297 1.1279519 5.5248462e-39
4.4938297 -0.051674038 1.1184239 7.2729506e-39
-3.567683 -0.026204219 1.1239572 2.1480147e-38
-3.5158005 -0.027773306 1.1206921 2.0466351e-38
-3.4748554 -0.027302086 1.1383492 2.1111722e-38
-3.4424782 -0.015134871 1.1314783 2.1941485e-38
4.0456233 -0.041949779 1.1449686 3.5012633e-39
4.0532842 -0.048512995 1.1123304 3.9636918e-39
4.1257334 -0.024376515 1.1206892 1.2801133e-38
4.1634107 -0.01243595 1.1162007 6.9035081e-39
4.2400284 -0.014226541 1.1300898 3.132506e-39
-3.5593016 0.027767599 1.1027513 1.861994e-38
-3.5218267 0.031780973 1.1202061 2.0005738e-38
-3.4732337 0.024604553 1.117635 2.1019525e-38
-3.4360888 0.024156928 1.1239047 2.0835493e-38
-3.3594487 0.031178176 1.1293085 1.7884156e-38
4.0450001 0.012785714 1.1056334 3.4000742e-39
4.0745926 0.034582481 1.1403377 1.3083111e-38
4.1262975 0.026682207 1.1335531 1.3262843e-38
4.1730757 0.023018975 1.1172365 1.4837348e-38
4.2258415 0.023362823 1.1082602 1.2624662e-38
4.2672186 0.042266503 1.1274947 8.8468162e-39
4.3184967 0.040696934 1.1099716 8.752094e-39
-3.5213401 0.072219551 1.1246319 2.0926613e-38
-3.4753301 0.077495642 1.1270328 2.0834773e-38
-3.4288211 0.088572383 1.1201861 2.1939675e-38
4.0911555 0.088560902 1.1359035 1.6496513e-38
4.1280379 0.07245066 1.1278683 1.667982e-38
4.1770148 0.064857028 1.1270362 1.5944064e-38
4.2221661 0.094415322 1.1107669 1.6582937e-38
4.2635856 0.099351421 1.1290228 1.7787257e-38
4.3319473 0.068849377 1.1245929 1.73234e-38
-3.5215111 0.1241608 1.1234586 2.0835133e-38
-3.4713356 0.12869762 1.1229148 2.1019526e-38
-3.4300818 0.1201985 1.1155576 2.028196e-38
-3.379348 0.11985976 1.1378766 1.9267443e-38
-2.257585 0.12797284 1.1142125 1.6601707e-38
-2.2154655 0.13801742 1.1172295 8.0145304e-39
4.0450001 0.13606191 1.1364524 1.0412309e-38
4.0885258 0.12499909 1.1284755 1.4923052e-38
4.1351662 0.1325774 1.1226349 1.8617738e-38
4.179502 0.13418488 1.1177679 1.7418115e-38
4.2139263 0.13393867 1.1123827 1.7786181e-38
4.26197 0.13824126 1.1118128 1.7415608e-38
-3.5296495 0.17108102 1.1218332 2.2216631e-38
-3.4689801 0.17479248 1.1200844 2.1111723e-38
-3.4347951 0.1696071 1.1247983 2.0374157e-38
-3.3706641 0.17955784 1.1210753 1.9451476e-38
-3.3432925 0.16214609 1.1340089 2.0466707e-38
-2.187541 0.15236765 1.1119926 1.0602844e-38
4.0930004 0.16939525 1.1187534 1.7048975e-38
4.133523 0.18244009 1.11115 1.6128825e-38
4.1757665 0.18459009 1.1296371 1.7511035e-38
4.2251906 0.17123504 1.1198653 1.7602158e-38
4.2837772 0.19670387 1.1281085 1.686602e-38
-3.5242743 0.21756658 1.1242934 2.2677249e-38
-3.4759865 0.22770207 1.1266472 2.1112082e-38
-3.4261806 0.23564349 1.1211554 2.1573059e-38
-3.3756666 0.22507764 1.1292857 2.0465988e-38
4.0910954 0.23393618 1.1159471 1.8516551e-38
4.1229672 0.22475661 1.1171789 1.7972383e-38
4.1942983 0.21263738 1.134317 1.73252e-38
4.2349324 0.22306089 1.1203688 1.5761117e-38
4.2737775 0.2336015 1.1257819 1.7507805e-38
-3.5319242 0.26996499 1.1103932 2.2031523e-38
-3.4689012 0.27374464 1.1262716 2.129647e-38
-3.4314342 0.27196637 1.1289402 2.1019525e-38
-3.3856349 0.27883106 1.1152736 2.0558544e-38
4.0881233 0.26887852 1.1261065 1.9170567e-38
4.1240578 0.27350169 1.113795 1.8707421e-38
4.1724267 0.26429132 1.1214418 1.9727705e-38
4.2342987 0.27512327 1.1165932 1.9540072e-38
-3.5043607 0.3172791 1.1137258 2.2679047e-38
-3.4760246 0.32926965 1.1362455 2.138867e-38
-3.4243746 0.32347649 1.1237818 2.1203916e-38
-3.3791001 0.32506457 1.1275301 2.1571974e-38
-3.3374238 0.34833944 1.1392772 1.8529164e-38
-2.5783494 0.34451985 1.1202261 5.1637218e-39
4.0890818 0.3301487 1.1176056 1.4835593e-38
4.1340299 0.32580674 1.1185088 1.7970941e-38
4.1741152 0.32410637 1.1285642 1.6217084e-38
4.2255273 0.31660467 1.1231487 1.8528446e-38
4.2754421 0.32254139 1.1013552 1.7693616e-38
4.3218226 0.32252938 1.1256045 1.59455e-38
-3.5105538 0.35726756 1.144927 2.0093642e-38
-3.4763727 0.37459004 1.1266841 2.1295751e-38
-3.4156358 0.38477468 1.1256156 2.1573057e-38
-3.381355 0.38042799 1.1260204 2.1941841e-38
4.0930004 0.38768864 1.1343458 1.3729218e-38
4.1215549 0.36954641 1.1152471 1.3364055e-38
4.1777315 0.38207221 1.1241105 1.5757898e-38
4.2282701 0.36974972 1.1250871 1.650122e-38
4.2636051 0.36189535 1.1157417 1.5577106e-38
4.3164711 0.36572587 1.1052015 1.040989e-38
-3.4748781 0.42586693 1.1175203 2.1664893e-38
-3.4240668 0.42410007 1.1353571 2.0835126e-38
-3.3928082 0.43817276 1.1265754 2.0926606e-38
-3.3465581 0.42016652 1.1260836 1.8701316e-38
-3.2835002 0.43158817 1.1453624 9.3117572e-39
4.0450001 0.44425243 1.1364524 7.7408386e-39
4.085813 0.41517982 1.1092262 7.6486373e-39
4.1408772 0.41658771 1.1175641 1.3187909e-38
4.1827598 0.42743474 1.1235793 9.8627758e-39
4.224586 0.42867622 1.1265205 1.0315476e-38
4.2593284 0.40636888 1.1221818 1.4004367e-38
4.3424406 0.41991407 1.1257148 9.2065603e-39
-3.467299 0.47473431 1.1245723 2.0465992e-38
-3.4208245 0.47845691 1.1194106 2.1388304e-38
-3.3774803 0.47836548 1.128642 1.7236966e-38
4.0930004 0.4812429 1.1499382 8.0167108e-39
4.1319642 0.47174838 1.1170413 8.7535444e-39
4.1858649 0.48395342 1.1198241 9.0286949e-39
4.2211933 0.47391528 1.1185075 8.6613459e-39
4.2730355 0.46248218 1.1074365 8.9386587e-39
4.3870373 0.48889723 1.1211771 9.5749869e-39
-3.4648483 0.54022247 1.1187309 1.8888954e-38
-3.4255776 0.52591228 1.1169188 1.8901169e-38
-3.3931279 0.51871049 1.120173 1.5859027e-38
-3.3343194 0.51462919 1.1249546 1.4741511e-38
4.0450001 0.53670949 1.121043 7.6482786e-39
4.0930004 0.51242769 1.1499382 8.0181611e-39
4.1420002 0.51910096 1.1321467 8.479847e-39
4.1881208 0.52730149 1.1198887 9.3092223e-39
4.2366052 0.52861369 1.1196059 1.2435603e-38
4.284193 0.51480782 1.1245987 8.8464575e-39
4.3641253 0.54344547 1.1358389 1.7892042e-38
-3.4752316 0.57831496 1.1277041 2.1388289e-38
-3.4253192 0.57698143 1.116493 2.0837279e-38
-3.3887911 0.5817641 1.1276824 1.1065271e-38
4.0450001 0.56752861 1.1364524 6.1760156e-39
4.0930004 0.57479715 1.1187534 6.7302908e-39
4.128562 0.56855333 1.1185062 8.1110462e-39
4.1846366 0.57521164 1.1196588 8.8475309e-39
4.231657 0.56778485 1.1202806 1.6773114e-38
4.266789 0.57743591 1.1285007 1.0965162e-38
4.3236508 0.56667328 1.1236852 1.0320524e-38
-3.4597719 0.63229448 1.1110362 8.7445466e-39
-3.4248028 0.60774165 1.1139958 1.299238e-38
-3.2757549 0.64384151 1.1170833 2.1295374e-38
4.0930004 0.60598195 1.1499382 1.5394851e-38
4.1420002 0.62955427 1.1321467 1.4661602e-38
4.1820683 0.63485509 1.1069568 1.6591239e-38
4.2137961 0.62066346 1.1330911 1.7140812e-38
4.2743325 0.62610149 1.1152328 1.4835566e-38
4.3243008 0.62760514 1.1265281 1.2536443e-38
4.3627181 0.63443762 1.1381538 1.3822503e-38
-3.4166708 0.68557978 1.1366574 1.4835536e-38
-3.3673854 0.69895399 1.1228565 2.258467e-38
-3.323905 0.68043083 1.1408557 1.78838e-38
4.1420002 0.67689145 1.1321467 1.4192372e-38
4.1702895 0.67980319 1.1222203 1.6403255e-38
4.2367406 0.68910784 1.1326401 1.64958e-38
4.2748089 0.66399765 1.118535 1.6126671e-38
4.3163052 0.69055438 1.1214013 1.6310695e-38
4.3811564 0.6814068 1.1242632 1.4378187e-38
-3.4681642 0.70565486 1.1216465 9.2320345e-41
-3.4022427 0.73442149 1.1342664 2.2034742e-38
-3.355675 0.74071157 1.1250387 1.6042419e-38
-3.3282433 0.72608089 1.1272203 1.3554586e-38
-3.2967646 0.74839759 1.1039577 2.1849641e-38
-1.5486076 0.73140091 1.1023281 6.7267791e-39
-1.4971042 0.74425977 1.1028342 5.0536946e-39
4.1420002 0.70844954 1.1163676 1.5668201e-38
4.188725 0.73249435 1.1288013 1.6866026e-38
4.2346506 0.7286123 1.1219981 1.7326648e-38
4.2728019 0.71417445 1.1357373 1.566641e-38
4.3147597 0.73299998 1.1268394 1.5205443e-38
4.3656578 0.71713537 1.1116298 1.5570627e-38
4.4317584 0.73857009 1.1466807 1.6314676e-38
-3.5071993 0.75451875 1.1386532 1.841082e-40
-3.461313 0.75134945 1.1477215 1.750048e-39
-3.4178398 0.77225 1.1297354 4.8861176e-39
-3.3689861 0.78057015 1.127991 8.7615318e-39
-3.3296728 0.77752447 1.1300204 1.7608298e-38
-3.2704659 0.7591278 1.1352606 1.2909222e-38
-3.2141595 0.79566872 1.1428018 1.7607944e-38
-1.6789724 0.79208219 1.1137583 1.4112809e-38
-1.6100146 0.7763409 1.116267 1.1892531e-38
-1.5788405 0.76840949 1.1095469 8.7500341e-39
-1.5421917 0.76874042 1.1031343 5.7172613e-39
4.1955347 0.76666987 1.1079721 1.5944781e-38
4.2383661 0.77837062 1.1251531 1.6864952e-38
4.2784724 0.7831077 1.1250706 1.6497249e-38
4.329041 0.7689147 1.1223506 1.5942276e-38
4.3723412 0.75902808 1.1109502 1.5020686e-38
4.4288769 0.77525538 1.116873 1.5388749e-38
-3.4107783 0.82005984 1.1018023 1.9177383e-38
-3.3877831 0.82565248 1.1298071 8.5749489e-39
-3.333998 0.82885134 1.1324151 1.0513595e-38
-3.2615528 0.82074976 1.1367595 1.7520781e-38
-3.2261519 0.84252846 1.1284766 1.8072157e-38
-1.5855036 0.81129444 1.1116924 1.0046905e-38
4.1420002 0.81890285 1.1005886 1.7147646e-38
4.1827154 0.81692964 1.1401695 1.7786894e-38
4.227489 0.82428646 1.1175903 1.6127027e-38
4.2815084 0.83783817 1.1264645 1.3086729e-38
4.3305416 0.8220951 1.1141289 1.7694709e-38
4.3718472 0.80713904 1.1342469 1.585116e-38
4.4180746 0.83209366 1.1241187 1.658908e-38
-3.5206201 0.88105506 1.124181 2.2866608e-38
-3.4790373 0.89273858 1.1065795 2.3047471e-38
-3.3629513 0.87542409 1.1165037 1.7516797e-38
-3.3182836 0.87653637 1.1350216 1.4848571e-38
-3.2778838 0.87163639 1.1315047 1.7701576e-38
-2.5611591 0.89517075 1.1314182 7.4649579e-39
-2.4701009 0.89233673 1.1164237 6.9110807e-39
4.1420002 0.89779812 1.1005886 1.7233367e-38
4.1876631 0.88547677 1.116928 1.2441008e-38
4.2256503 0.87903339 1.1472771 1.7886653e-38
4.2573562 0.87368149 1.1016273 1.5115759e-38
4.3236837 0.86339474 1.119303 1.7600712e-38
4.3648815 0.87697488 1.1345886 1.6681641e-38
4.4121809 0.87964255 1.1333785 1.7325206e-38
4.4748993 0.87996674 1.1242108 1.6127739e-38
-3.4577985 0.9169848 1.1069981 2.3325853e-38
-3.4215312 0.93917286 1.125805 2.3140381e-38
-3.3827693 0.91913205 1.1429788 1.1891852e-38
-3.3280568 0.92816389 1.1375129 1.3829389e-38
-3.2772858 0.92351669 1.1322963 1.5582177e-38
-3.2020321 0.90984988 1.1154807 1.844129e-38
-2.6620131 0.92638797 1.1393992 3.7721357e-39
-2.6352425 0.92312574 1.1185882 9.491066e-39
-2.5953183 0.90740049 1.1325109 2.0557835e-38
-2.431891 0.91812664 1.10482 5.4388219e-39
-2.395189 0.92407292 1.1244202 8.0181527e-39
4.1420002 0.92935622 1.1005886 1.7048971e-38
4.1920004 0.92514861 1.1458135 1.6956423e-38
4.2073851 0.93842828 1.1111817 1.5114664e-38
4.3750992 0.90367746 1.1273093 1.4565825e-38
4.4236178 0.93481129 1.1265043 1.4655861e-38
4.4735599 0.94111377 1.109194 1.5573853e-38
-3.4123993 0.97497571 1.1132276 2.3323695e-38
-3.3683643 0.96674484 1.1346321 1.678072e-38
-3.3176665 0.97085631 1.1336331 1.4569826e-38
-3.2666976 0.97454524 1.1319771 1.8072515e-38
-3.2465067 0.96533895 1.142803 2.0742219e-38
-2.664012 0.97508645 1.1297188 1.1429013e-38
-2.6284137 0.97705746 1.1275896 8.938342e-39
-2.5703034 0.97320199 1.1194602 1.0417013e-38
-2.5418649 0.99345481 1.1191399 9.8619855e-39
-2.4150076 0.99104559 1.1412865 1.3637361e-38
-2.3694952 0.95615941 1.1256678 8.3872884e-39
-2.3410411 0.99300963 1.1253927 7.6493646e-39
4.1420002 0.96091431 1.1005886 1.7140084e-38
4.1920004 0.97305721 1.1458135 1.6680922e-38
4.2415018 0.97276992 1.1105876 1.520614e-38
4.4037991 0.97398001 1.1285148 1.6683761e-38
4.4782143 0.99154258 1.1418024 1.6680911e-38
4.5213456 0.99512517 1.1035876 1.5757874e-38
-3.4113102 1.0434576 1.1331084 2.323294e-38
-3.3820291 1.0096043 1.1183195 2.2218784e-38
-3.3282027 1.0171155 1.1345619 1.1803968e-38
-3.2790322 1.0323553 1.1395774 2.1756721e-38
-3.2419958 1.0156218 1.1355797 1.9176701e-38
-2.4982429 1.0000005 1.1140022 5.7128892e-39
-2.4324908 1.0057602 1.1030705 1.3088191e-38
-2.3775914 1.0191942 1.1404815 1.2716505e-38
-2.3324969 1.036157 1.1462914 1.1523722e-38
4.2666321 1.0203717 1.1107873 1.502427e-38
4.375494 1.0206316 1.1196216 1.1144185e-38
4.4262824 1.0283111 1.1193464 1.7418122e-38
4.4727378 1.0447656 1.1221995 1.5299054e-38
4.5594969 1.0199857 1.1017389 1.5203632e-38
-3.4308028 1.0804555 1.1116178 1.6138603e-38
-3.3663204 1.0633651 1.1276871 2.2034038e-38
-3.3256707 1.0764755 1.1396157 1.3002168e-38
-3.2846348 1.0875175 1.1233152 1.3371281e-38
-3.2424369 1.0714573 1.1160226 2.0654335e-38
-2.3557637 1.0688181 1.1449535 1.8340082e-38
-2.2987862 1.0781252 1.1386802 4.2348879e-39
4.2776489 1.0647278 1.1178951 1.5575648e-38
4.3454804 1.0868479 1.1276008 1.7696149e-38
4.4226356 1.077129 1.1273776 1.6770594e-38
4.4755511 1.072412 1.1269848 1.7232283e-38
-3.3662307 1.1213949 1.1222767 1.6229704e-38
-3.3319373 1.1350136 1.130972 1.1439152e-38
-3.2757034 1.1270989 1.1313738 1.7423917e-38
-3.2289271 1.1270792 1.134006 2.0281591e-38
-2.5161085 1.1345489 1.1264023 2.0088182e-38
-2.471818 1.1016884 1.134533 2.0660789e-38
-2.3324718 1.1110848 1.1240582 1.8156047e-38
4.2827253 1.1350375 1.1385404 1.8340078e-38
4.3184056 1.1229672 1.1255443 1.7602149e-38
4.3852882 1.1188669 1.1129169 1.7048965e-38
-3.3700454 1.1717935 1.1219776 2.0838019e-38
-3.3271899 1.1765513 1.1339309 2.0192283e-38
-3.2710273 1.1801858 1.1228858 1.9637315e-38
-3.2243118 1.1773769 1.1208119 1.8987987e-38
-2.4690781 1.1552843 1.1281672 1.4373509e-38
-2.4329596 1.1947666 1.1377957 4.0555455e-39
-2.3898435 1.1932807 1.1483653 1.0136476e-38
-2.3445549 1.1863446 1.1378578 1.7050768e-38
-2.2806323 1.1912255 1.1271867 1.8246436e-38
4.2768912 1.1521245 1.1039464 1.8432281e-38
4.3235817 1.1805756 1.1298376 1.6685953e-38
4.3540182 1.1847875 1.129333 1.7970572e-38
4.4243932 1.1565988 1.1236391 1.5667119e-38
-3.3816583 1.2262005 1.1250682 2.148481e-38
-3.3201721 1.2247756 1.1380541 2.0007546e-38
-3.2703118 1.2295277 1.1206144 1.9357854e-38
-2.252507 1.2270947 1.1298474 1.5202896e-38
4.2305441 1.2095516 1.1166689 1.8433355e-38
4.2774153 1.2486753 1.1441346 1.8524099e-38
4.345036 1.2468268 1.1172407 1.8247519e-38
4.3792343 1.2196051 1.1180357 1.732592e-38
-3.3539851 1.2644403 1.1271952 2.341769e-38
-3.3186405 1.2772609 1.1236153 2.0283046e-38
-3.2723589 1.2802867 1.1236316 1.9914626e-38
4.2795253 1.2587241 1.1141156 1.8524825e-38
4.3375006 1.2700083 1.1275609 1.6681267e-38
4.386353 1.2783008 1.1308976 1.7327011e-38
4.4182973 1.2699922 1.1131095 1.5944782e-38
-3.3778057 1.329989 1.1171108 2.2955273e-38
-3.3074863 1.3171871 1.1177574 2.1295753e-38
-3.2773986 1.322981 1.1310037 2.0833694e-38
-3.2440989 1.318978 1.1285285 2.0374508e-38
4.3301787 1.3271681 1.1269413 1.8062408e-38
4.3898697 1.3174717 1.1361175 1.769363e-38
4.4138765 1.3279415 1.1288155 1.7048619e-38
4.451077 1.3489562 1.1254793 1.8246446e-38
-3.3622301 1.3725184 1.1234403 2.3140386e-38
-3.321641 1.3727951 1.1229023 2.1942554e-38
-3.2703841 1.3677336 1.1301602 1.9634068e-38
-3.2395704 1.3687005 1.1162581 1.7340683e-38
4.26614 1.3527243 1.1167195 1.6221388e-38
4.3299937 1.3797864 1.1219952 1.7509598e-38
4.3813152 1.3822483 1.1188582 1.8340442e-38
4.4165134 1.378052 1.1262465 1.5757884e-38
4.4835243 1.3599796 1.1449081 1.520758e-38
-3.3861797 1.4241343 1.1400334 2.3233299e-38
-3.3197668 1.4271876 1.1227161 2.1665973e-38
-3.2744203 1.4288914 1.1256406 1.9541169e-38
-3.2352746 1.4199958 1.1266236 1.8339044e-38
-3.173265 1.407854 1.132457 2.2124789e-38
4.0930004 1.4375757 1.1395433 1.6125221e-38
4.1420002 1.4342859 1.1321467 1.6125233e-38
4.2900028 1.4179639 1.1279067 1.7971653e-38
4.3206458 1.4218117 1.1274008 1.6404683e-38
4.3690653 1.4329895 1.1216367 1.6865309e-38
4.422358 1.4158393 1.1258761 1.7693264e-38
4.4674654 1.4158084 1.1079454 1.5943356e-38
-3.3757625 1.4602737 1.1299742 2.2955278e-38
-3.3307672 1.480091 1.1216352 1.9819919e-38
-3.2717788 1.4788682 1.1252384 2.0000334e-38
-3.2234745 1.4668839 1.1259154 2.1843892e-38
-3.1457527 1.4762449 1.1122918 1.5760422e-38
-2.6382425 1.4799031 1.1000655 1.5755712e-38
4.0930004 1.4791554 1.1187534 1.5941191e-38
4.3248653 1.4678636 1.129648 1.7879097e-38
4.3769264 1.4810255 1.1243902 1.6219579e-38
4.4130344 1.4718611 1.1222715 1.7509237e-38
4.4717078 1.4743268 1.1230006 1.6589085e-38
-3.3676512 1.5377369 1.1173071 1.6128474e-38
-3.3283327 1.5153084 1.1206043 1.870528e-38
-3.2644942 1.5245118 1.1321632 2.0093977e-38
-3.2212722 1.5252725 1.119725 1.8620276e-38
-3.1661091 1.5240937 1.1146034 1.6501207e-38
-3.1406426 1.5218859 1.1146469 1.5116496e-38
-3.0572577 1.5269294 1.1335862 1.7977805e-38
-3.0449142 1.5149461 1.1007966 1.4280633e-38
-2.9942718 1.5077343 1.1176808 1.8066033e-38
-2.9382422 1.5103931 1.1107934 1.806669e-38
-2.6750147 1.5110848 1.133437 1.7232979e-38
-2.6128099 1.5235679 1.1007205 1.4285571e-38
4.0930004 1.541525 1.1499382 1.57568e-38
4.1420002 1.5289601 1.1163676 1.6217055e-38
4.2764382 1.5087316 1.118026 1.6312148e-38
4.33288 1.5363204 1.1235394 1.7879454e-38
4.3836374 1.5268407 1.1274362 1.741704e-38
4.4238467 1.5151745 1.1230896 1.7324488e-38
4.5033598 1.530079 1.1083122 1.5851515e-38
-3.3669496 1.5725819 1.1062405 2.1756012e-38
-3.3255057 1.5757734 1.1199045 2.0642839e-38
-3.2854862 1.5733685 1.1208857 2.2031165e-38
-3.2274177 1.5843492 1.1169624 1.9726984e-38
-3.1523402 1.5736589 1.1077151 1.4839922e-38
-3.102978 1.5803963 1.1370105 1.6410484e-38
-3.0825856 1.5858749 1.1286016 1.8161447e-38
-3.0358219 1.5897917 1.1105795 1.7599594e-38
4.0450001 1.5537382 1.121043 1.5848995e-38
4.1420002 1.5605181 1.1321467 1.5575277e-38
4.2836723 1.5570405 1.1299939 1.446858e-38
4.3273258 1.5753444 1.1235415 1.7879105e-38
4.3932171 1.5778751 1.1346154 1.6036265e-38
4.4100389 1.5818037 1.1254827 1.7047536e-38
4.4700642 1.5739485 1.1196632 1.6496164e-38
-3.3251982 1.6305037 1.1274315 2.0003582e-38
-3.2806466 1.6186196 1.1323665 2.2310617e-38
-3.2227092 1.6322044 1.1266057 1.9452923e-38
-3.1831908 1.6167259 1.1344509 2.1292848e-38
-3.1340673 1.6349387 1.1294596 2.0187603e-38
-3.0798521 1.6350695 1.1170195 1.8987256e-38
-3.015919 1.6398724 1.1063942 2.0470995e-38
4.0930004 1.6038946 1.1187534 1.5848646e-38
4.1420002 1.6236343 1.1005886 1.5941187e-38
4.3789644 1.6231406 1.1306505 1.5852241e-38
4.4205337 1.6247193 1.1248096 1.7693625e-38
4.459661 1.6174122 1.1418662 1.741631e-38
4.5124722 1.6244689 1.1171129 1.5023192e-38
4.6154056 1.6013904 1.1473663 1.4744797e-38
4.6997714 1.6177553 1.1183387 1.4466774e-38
-3.3183651 1.6752471 1.1295927 2.2308833e-38
-3.2652893 1.6633554 1.1284094 1.9634075e-38
-3.2222514 1.6796094 1.1217585 1.678251e-38
-3.1751406 1.6700128 1.1381531 2.0002138e-38
-3.1268301 1.6609932 1.1393894 1.9910667e-38
-3.0677347 1.6759422 1.134583 1.5950186e-38
-3.0346057 1.6586529 1.1245739 1.9175246e-38
4.1420002 1.6762314 1.1216273 1.5663882e-38
4.1920004 1.6757164 1.1138744 1.5757888e-38
4.3403454 1.6518166 1.1310414 1.4376375e-38
4.3771544 1.6783085 1.1224502 1.7879457e-38
4.4306946 1.6753587 1.1263248 1.7416324e-38
4.4703588 1.678331 1.1296576 1.6312492e-38
4.5064535 1.6712556 1.1223161 1.7599977e-38
4.5803213 1.6812596 1.1278338 1.5941188e-38
4.6369939 1.6844369 1.1190164 1.4098717e-38
4.6676311 1.6546913 1.1472778 1.4835562e-38
4.7502084 1.6704816 1.1181382 1.4649028e-38
-3.3149314 1.727609 1.1198081 2.3325494e-38
-3.2346673 1.7219902 1.1242849 2.0096491e-38
-3.1307387 1.729974 1.1397445 1.9541536e-38
-2.9705067 1.7287164 1.1026278 5.8836136e-39
-2.9176481 1.7262652 1.1183261 2.9477476e-39
-2.6034672 1.7027786 1.1137183 5.2540845e-39
4.1420002 1.7340878 1.1163676 1.5388016e-38
4.3806391 1.7285516 1.1228874 1.6681634e-38
4.4251261 1.7263111 1.1289138 1.7048263e-38
4.4717159 1.7118056 1.1225817 1.713937e-38
4.5156131 1.7241718 1.1234478 1.5114307e-38
4.7205749 1.7257694 1.1475121 1.4835911e-38
4.8043208 1.7242129 1.134411 1.4558622e-38
-3.3107564 1.7832698 1.1210494 2.32333e-38
-3.2900074 1.7512398 1.1254483 2.3233299e-38
-3.2063618 1.7916975 1.1093346 1.9998536e-38
-3.0040531 1.7560954 1.1483356 3.8689851e-39
-2.5143359 1.7740602 1.1141834 6.3622005e-39
4.0930004 1.7598183 1.1499382 1.5018884e-38
4.1420002 1.7814249 1.1321467 1.5203632e-38
4.3389125 1.7835983 1.1261088 1.6769514e-38
4.3722963 1.7756743 1.1275822 1.5483085e-38
4.4206305 1.777393 1.1235874 1.6585488e-38
4.4722452 1.7851493 1.135977 1.5760031e-38
4.5235386 1.7757771 1.1207952 1.6770583e-38
4.5787334 1.7663859 1.1115047 1.5574213e-38
4.684063 1.7749758 1.1282036 1.4005083e-38
4.7251196 1.7844293 1.1229078 1.437422e-38
4.8022766 1.7575136 1.1193751 1.4466424e-38
-3.3329289 1.8046257 1.1148077 2.341769e-38
-3.2730761 1.8145407 1.1245345 2.3325854e-38
-3.1851144 1.8222475 1.1203318 1.326936e-38
-3.1247227 1.83246 1.1311454 2.341769e-38
2.379271 1.8336239 1.1167496 4.8821084e-39
3.7490501 1.8239102 1.1230888 1.4100159e-38
3.8165784 1.8257053 1.1041402 1.3269327e-38
3.8806744 1.8303132 1.1495491 1.3732459e-38
4.0081477 1.8461891 1.1226115 1.3822118e-38
4.1420002 1.8287621 1.1163676 1.465333e-38
4.165586 1.8277791 1.1479026 1.3364021e-38
4.3048172 1.847945 1.1414868 1.4191242e-38
4.3850002 1.8216263 1.1240364 1.6588358e-38
4.4406128 1.8304231 1.1237781 1.7603236e-38
4.4845233 1.8256016 1.1413256 1.5574921e-38
4.7150307 1.8429208 1.1009035 1.5017455e-38
4.7795258 1.8440515 1.1032176 1.409764e-38
4.8000441 1.8071672 1.1049562 1.4282037e-38
-3.3212831 1.8683255 1.1156349 2.341769e-38
-3.2708857 1.8817456 1.1051291 2.1665613e-38
-3.2153111 1.8710359 1.1198463 2.1019895e-38
-3.1688888 1.8645836 1.1240166 2.2770519e-38
-3.1317658 1.8718455 1.1065537 2.2588648e-38
-3.0615191 1.8850323 1.1314796 6.1746633e-39
3.6795306 1.8781655 1.1151474 1.4746618e-38
3.7147293 1.8507103 1.1263754 1.4286711e-38
3.9520001 1.8783067 1.1404344 1.3085642e-38
4.0811076 1.8796058 1.1113608 1.8120773e-38
4.1220703 1.8642443 1.1129367 1.5275301e-38
4.1991405 1.8734627 1.1482097 1.4280219e-38
4.3683329 1.8718892 1.1216693 1.7141538e-38
4.439394 1.8765459 1.1323045 1.6680199e-38
4.4607935 1.889107 1.148337 1.5851495e-38
4.5011334 1.8552773 1.143205 1.3917551e-38
4.5777149 1.8568765 1.1348845 1.5296552e-38
4.6355839 1.8585205 1.1275644 1.5664614e-38
4.7308598 1.8523699 1.1213217 1.4005448e-38
4.7801642 1.8913988 1.1207697 1.3545554e-38
4.8028107 1.855037 1.1393464 1.3913965e-38
4.8549299 1.8797187 1.1217984 1.4189111e-38
-3.157831 1.9012434 1.1265217 2.341769e-38
-3.128633 1.9313191 1.1223229 5.1688183e-39
-1.7815359 1.9404035 1.1148179 2.341769e-38
3.7451077 1.9360698 1.1127732 1.5113598e-38
3.888391 1.940959 1.1236055 2.3132475e-38
3.9409952 1.901654 1.1306348 1.6489312e-38
3.9980001 1.9006934 1.1232476 1.086795e-38
4.0930004 1.9157423 1.1499382 1.381855e-38
4.1420002 1.9076573 1.1321467 1.3360431e-38
4.3392754 1.9278412 1.1144857 8.7550171e-39
4.3965931 1.9183649 1.1281526 1.1795253e-38
4.4105654 1.9203223 1.1253144 1.7232661e-38
4.5114574 1.9376067 1.1437504 6.1649299e-39
4.5765219 1.9193156 1.1212099 1.5387311e-38
4.7301536 1.9333026 1.1239946 1.3176764e-38
4.7803426 1.9186578 1.1147252 1.4465697e-38
4.854548 1.9128358 1.1230478 1.3729578e-38
-3.192507 1.9649661 1.1210278 1.0041134e-38
-3.1135283 1.9547321 1.1214021 8.3116729e-39
-3.080543 1.9536183 1.1388211 7.2813696e-39
-1.774382 1.9717813 1.1241395 2.3142168e-38
3.8108864 1.9600856 1.1246296 1.5299413e-38
3.8694737 1.969568 1.1151874 1.9635472e-38
3.9476192 1.9701902 1.1328691 1.8347246e-38
4.3195386 1.9944252 1.1038746 1.3361499e-38
4.5483027 1.9900311 1.1383343 1.2900174e-38
4.5811124 1.9825745 1.118775 1.2807263e-38
4.6455822 1.9761372 1.1339377 1.2992001e-38
4.6807265 1.9850502 1.14329 1.2529244e-38
4.7336636 1.9838305 1.1239402 1.2899809e-38
4.7838564 1.9527364 1.1060402 1.3913247e-38
-1.7598276 2.0243123 1.132805 2.2487821e-38
-1.7323111 2.0213149 1.1201568 2.341769e-38
3.660856 2.0094202 1.1183503 1.8244631e-38
3.7290826 2.0044811 1.1314768 1.7325922e-38
3.7801733 2.0294251 1.112295 1.7511754e-38
3.8371477 2.0072684 1.1281244 1.6128466e-38
4.4080257 2.0489178 1.1339033 1.3451912e-38
4.457314 2.0422363 1.1475745 1.3451913e-38
4.5052495 2.0360811 1.1300688 1.3360076e-38
4.5755305 2.0219216 1.1328914 1.3084919e-38
4.6376028 2.0111604 1.1162701 1.4097284e-38
4.6757903 2.0248942 1.1126165 1.3175329e-38
4.711957 2.0416899 1.10596 1.3082403e-38
4.7722406 2.0193172 1.1062434 1.308457e-38
-1.725152 2.0893581 1.1229748 2.3325854e-38
4.5047612 2.067625 1.1308713 1.3362236e-38
4.6230121 2.0732391 1.1230645 1.428275e-38
-1.7546813 2.1109545 1.1201395 2.341769e-38
-1.7137322 2.1145961 1.1160821 2.1635066e-38
4.5167022 2.1124868 1.1327287 1.4004367e-38
4.5735068 2.1063731 1.1141839 1.3179272e-38
-2.5778372 2.2839885 1.1301759 6.5447631e-39
-3.1492507 2.3367455 1.1470892 1.9321397e-39
-3.0819023 2.3253961 1.1273072 1.1971041e-39
-3.0173113 2.3150623 1.1083815 1.1045469e-39
-2.9799869 2.3195772 1.1029034 1.1967411e-39
-2.6608989 2.3010764 1.1295158 3.2207444e-39
-2.6362183 2.3235221 1.1306736 3.4094516e-39
-2.5917761 2.3408337 1.1019001 7.0007442e-39
-3.0084097 2.3695922 1.110466 1.1967383e-39
-2.6157405 2.3560262 1.12532 6.6348329e-39
-2.6280897 2.4420345 1.11673 7.4667306e-39
-2.5953164 2.4188151 1.1220758 6.3557377e-39
-2.6054711 2.4895556 1.1036912 4.2345306e-39
1.1500096 3.2192202 1.1447481 1.8619954e-38
1.0953274 3.3769531 1.1082348 1.8251489e-38
-1.3636224 4.5462351 1.1158552 2.341769e-38
-1.3204336 4.577486 1.1301286 2.341769e-38
-1.4384315 4.6299963 1.1119256 2.2892314e-38
-1.2673168 4.6218753 1.117596 2.341769e-38
-1.415427 4.6600666 1.1483306 2.341769e-38
-1.3358908 4.6695838 1.1200193 2.341769e-38
-1.2923985 4.6915264 1.135291 2.341769e-38
-1.5183188 4.7488365 1.149368 1.5178096e-38
-1.328015 4.7467294 1.1036617 2.341769e-38
-1.259639 4.7104254 1.1325376 2.341769e-38
-1.2268798 4.7293243 1.1297842 2.3417606e-38
-1.5525682 4.8133621 1.1297034 9.107951e-39
-1.5974925 4.8657818 1.1481904 1.6567758e-38
-1.3283745 4.8519673 1.1173432 2.341769e-38
-1.2859724 4.8625154 1.11094 2.2407425e-38
-1.2168809 4.8559384 1.1060232 2.341769e-38
-1.4547682 4.9175148 1.1449537 1.1510027e-38
-1.3899684 4.9099517 1.1244359 2.1844961e-38
-1.280732 4.9256029 1.1143545 2.341769e-38
-1.5522363 4.9859405 1.138908 1.3076295e-38
-1.5257095 4.9866886 1.1197155 1.739038e-38
-1.4753227 4.9910851 1.1337683 1.6274362e-38
-1.4475369 4.9714971 1.1293122 2.3417689e-38
-1.3268552 4.9556975 1.1005217 2.341769e-38
-1.5518503 5.0497909 1.1347424 1.1692619e-38
-1.4973029 5.0414057 1.1477133 1.9701027e-38
-1.6417712 5.0630565 1.1250135 1.1495308e-38
-1.5510943 5.0627403 1.1176792 7.8287224e-39
-1.6247509 5.1266499 1.1190178 1.1231246e-38
3.5955782 -2.7756705 1.1667827 3.2243191e-39
3.629487 -2.7654777 1.1833334 7.9287709e-39
3.6705956 -2.7599728 1.1804432 8.8482399e-39
3.5630028 -2.7392006 1.1548532 5.894384e-39
3.672256 -2.7161379 1.1712893 9.215949e-39
3.6865745 -2.6890144 1.1798601 9.7687557e-39
3.7161009 -2.6618133 1.1804801 9.3084992e-39
3.6815953 -2.6437755 1.1627173 1.0413049e-38
3.7170901 -2.6203589 1.1716257 1.0137542e-38
3.7684772 -2.6200755 1.1773196 9.8609569e-39
3.8354416 -2.6159315 1.168592 8.4794574e-39
3.0948737 -2.5713191 1.1852483 7.1790104e-39
3.1141939 -2.5545354 1.1579168 1.2346164e-38
3.177999 -2.5654407 1.1708293 1.294399e-39
3.3745687 -2.581126 1.1667413 4.3342848e-39
3.5883663 -2.5702519 1.1793853 5.3523996e-39
3.6475325 -2.5733516 1.1601092 1.1519028e-38
3.6737485 -2.5673556 1.1662667 1.0319071e-38
3.7257087 -2.5704575 1.1693588 1.041341e-38
3.8078394 -2.5573454 1.1666607 1.0137905e-38
2.9714961 -2.5400264 1.1512309 1.2624521e-38
3.1951244 -2.5336523 1.1810458 8.3345029e-40
3.2254577 -2.508116 1.1663573 1.1074994e-39
3.6337559 -2.5187838 1.1917139 3.780039e-39
3.6814461 -2.5323186 1.1793844 9.5847372e-39
3.7237649 -2.5302875 1.1723429 1.096658e-38
3.7735794 -2.5245068 1.1780423 9.3070643e-39
3.8437357 -2.5351994 1.1710418 9.0319165e-39
3.8692222 -2.5116868 1.1701143 9.5836596e-39
2.9635637 -2.4560652 1.1764295 1.3093818e-38
3.1936386 -2.4644012 1.1638131 1.428263e-38
3.2251191 -2.4726725 1.1809754 5.6242655e-39
3.3400028 -2.4698346 1.176717 1.7499906e-39
3.4368095 -2.4616609 1.1769153 5.9880889e-39
3.5225246 -2.4901018 1.1732225 1.0225079e-38
3.6202857 -2.4747512 1.1776594 1.2807242e-38
3.6801312 -2.4748716 1.1676191 9.4907577e-39
3.7212977 -2.472863 1.1850623 1.1242449e-38
3.7806976 -2.4813673 1.1797568 1.0690718e-38
3.8267207 -2.473443 1.1749979 1.0044631e-38
3.9011064 -2.4880414 1.1608573 1.0136473e-38
2.9843335 -2.4062488 1.1561967 1.4649917e-38
3.0750446 -2.4248252 1.1534344 1.2064891e-38
3.1750581 -2.4192836 1.1672717 4.7851778e-39
3.2172949 -2.4115334 1.1682872 3.319798e-39
3.283947 -2.4022655 1.1686904 3.870427e-39
3.3223426 -2.4048657 1.1561308 7.4011961e-40
3.5416913 -2.4499104 1.1900777 1.1516172e-38
3.6870179 -2.4382226 1.1565069 1.3452989e-38
3.7263739 -2.4284074 1.1790634 1.1795982e-38
3.776273 -2.4290111 1.1784035 1.1150975e-38
3.8087301 -2.4459679 1.1809145 1.0229365e-38
3.8750045 -2.4246101 1.1840492 1.0321215e-38
2.8563828 -2.3729076 1.1615808 1.1790862e-38
2.9694781 -2.3925786 1.180703 6.5497825e-39
3.1080668 -2.3973742 1.151196 1.2252867e-38
3.1966853 -2.3909006 1.1595801 5.1643538e-39
3.202744 -2.3865433 1.1587354 4.6097549e-39
3.2743971 -2.37957 1.1869181 9.2234306e-40
3.3310294 -2.37325 1.1636729 1.4784484e-39
3.3695796 -2.3619094 1.1541771 9.256291e-40
3.5326478 -2.3826742 1.1753798 1.2347013e-38
3.6456604 -2.3530059 1.156781 1.3637746e-38
3.6521945 -2.3795502 1.1591513 1.3913605e-38
3.7420228 -2.3761692 1.1785686 1.133537e-38
3.7759073 -2.3780353 1.1732893 1.2163687e-38
3.815654 -2.3678191 1.1839542 1.1059137e-38
3.858598 -2.3584394 1.1768999 9.2119946e-39
2.2180994 -2.3025217 1.1968496 4.7005674e-39
2.2857916 -2.3155587 1.1972513 5.1481912e-39
2.3495991 -2.3055005 1.1899869 9.7702845e-39
2.4123154 -2.3055475 1.1903188 9.041678e-39
2.4771991 -2.3085403 1.1755259 7.3836014e-39
2.5013239 -2.3281209 1.1991842 2.8520235e-39
2.5652981 -2.315666 1.1724299 5.7979705e-39
2.6096885 -2.3218882 1.1804851 8.5745061e-39
2.6509089 -2.3455238 1.1816578 9.3963984e-39
2.70156 -2.3098929 1.164433 1.3552594e-38
3.2465377 -2.3253968 1.1894771 1.2918514e-39
3.3405819 -2.3322175 1.1587045 1.2018587e-39
3.5366538 -2.340215 1.1727314 1.2900193e-38
3.55181 -2.3022485 1.153267 1.3544828e-38
3.6681542 -2.3317997 1.1582884 1.4191625e-38
3.7033339 -2.3359315 1.1543326 1.428275e-38
3.7777328 -2.322932 1.1728063 1.0418447e-38
3.8267102 -2.3304117 1.1763101 1.1060585e-38
3.8853016 -2.3373573 1.1795143 1.0966225e-38
3.9113848 -2.3244324 1.175252 1.1519403e-38
2.1898618 -2.255393 1.1674647 3.3194505e-39
2.2276978 -2.2693563 1.1785278 3.5963863e-39
2.2747533 -2.2639849 1.1751162 4.2392375e-39
2.3339171 -2.2710981 1.1727422 3.8748075e-39
2.3775156 -2.2723081 1.1759479 5.4460638e-39
2.4267299 -2.2700894 1.1605226 4.4247653e-39
2.4784906 -2.2727544 1.1628202 3.783695e-39
2.5298078 -2.273756 1.1761063 3.1339858e-39
2.5717742 -2.2938583 1.158983 5.6257663e-39
2.6128535 -2.2804592 1.1555454 7.4595181e-40
3.5408692 -2.2951729 1.1951668 1.3360808e-38
3.6841137 -2.2840495 1.1574254 1.4651175e-38
3.7365308 -2.2813137 1.1663892 1.4743721e-38
3.7553277 -2.2502902 1.1882799 1.483665e-38
3.8222039 -2.2633045 1.173897 1.188782e-38
3.8801453 -2.2674563 1.1853423 1.1336087e-38
3.9290924 -2.2764258 1.1657753 7.3644666e-39
3.9703414 -2.2633834 1.169686 6.2570204e-39
1.8612045 -2.2209699 1.1982242 9.9520848e-39
2.0768907 -2.2174397 1.1584927 8.3011702e-39
2.1536367 -2.2402554 1.1994829 2.1169346e-39
2.2762568 -2.232914 1.165128 2.582254e-39
2.3238153 -2.235219 1.1646031 2.2138288e-39
2.4057043 -2.2420628 1.1595817 2.584496e-39
3.5465207 -2.2352176 1.1949703 1.3912888e-38
3.5958784 -2.2017856 1.1933032 1.4189834e-38
3.7232749 -2.2397878 1.1534295 1.5019591e-38
3.7585545 -2.2406318 1.1670734 1.4927748e-38
3.8418469 -2.2131815 1.1862074 1.1796701e-38
3.890311 -2.2455871 1.1674507 8.8417547e-39
3.9265773 -2.2222059 1.1759056 8.6548411e-39
3.9590101 -2.2235358 1.1664785 6.4410502e-39
1.8006978 -2.1681566 1.1571748 3.1342997e-39
1.8865066 -2.1982138 1.1620469 2.4842906e-39
3.6925092 -2.1893811 1.1639659 1.4834843e-38
3.7246397 -2.1901324 1.1543387 1.5021023e-38
3.780776 -2.1940045 1.1657602 1.4836994e-38
3.8415749 -2.1799715 1.1749038 1.1794911e-38
3.8765152 -2.1775198 1.1586384 1.2072572e-38
3.9198208 -2.1740026 1.1693349 8.1016547e-39
3.9588721 -2.1776218 1.1552945 6.8094656e-39
4.0450001 -2.1753666 1.1672715 2.1168939e-39
1.7192056 -2.1395788 1.1525275 3.1307264e-39
3.6964169 -2.1480024 1.1586329 1.4927392e-38
3.7376046 -2.142221 1.1536815 1.3367636e-38
3.7997043 -2.107012 1.1700699 3.0374097e-39
3.816467 -2.1412933 1.1668617 1.3270027e-38
3.8870487 -2.116848 1.1875068 8.8450029e-39
3.9106245 -2.1344414 1.1645176 8.2918207e-39
3.9726562 -2.1378617 1.1680558 6.9002347e-39
4.0450001 -2.1291385 1.182681 7.3608415e-39
4.0930004 -2.1070926 1.1811229 8.4650114e-39
4.1420002 -2.1002212 1.1794839 8.7430402e-39
-1.3811781 -2.0663588 1.1795099 1.5680855e-38
-1.3383598 -2.0522256 1.1756115 1.9451846e-38
-1.2893791 -2.0533676 1.164897 1.7797017e-38
-1.2283764 -2.0698218 1.1925106 1.8806125e-38
-1.1673028 -2.065073 1.1905044 1.5682622e-38
-1.1340146 -2.079633 1.1863892 2.1577384e-38
-1.0795752 -2.0624084 1.1842916 2.0279806e-38
-1.0314621 -2.0796995 1.1750289 2.2218434e-38
-0.9732365 -2.055763 1.1705972 1.9822429e-38
-0.92149752 -2.0582902 1.1793134 2.1757091e-38
-0.87730002 -2.062227 1.1658614 2.1388313e-38
-0.82423967 -2.0649693 1.1730307 2.1850006e-38
-0.78901398 -2.0676961 1.1827288 1.6781446e-38
-0.73674601 -2.0756152 1.155266 1.3736813e-38
3.7534294 -2.0648844 1.1877708 3.2221653e-39
3.802702 -2.0752144 1.1699656 4.3241688e-39
3.8759289 -2.0850861 1.1808779 7.5488537e-39
3.9107182 -2.0735397 1.1754637 6.2577435e-39
3.9736664 -2.0809216 1.1722689 5.520903e-39
4.0368385 -2.0791855 1.1820612 6.7179916e-39
-2.2687402 -2.0039175 1.1621859 1.0412699e-38
-2.053524 -2.0168223 1.1509435 8.9353993e-39
-1.8599339 -2.0026031 1.1865608 1.9359305e-38
-1.8137192 -2.0188999 1.1870357 1.8163283e-38
-1.7683132 -2.0187306 1.1835505 1.9359298e-38
-1.7181622 -2.0252161 1.1856166 1.9726999e-38
-1.6757966 -2.0264053 1.164331 1.972808e-38
-1.6300794 -2.0362206 1.1664319 2.0002871e-38
-1.509454 -2.0346603 1.1954908 1.7615869e-38
-1.4713936 -2.0243599 1.1884289 1.9174178e-38
-1.4288626 -2.0222573 1.1785324 1.8991229e-38
-1.3686554 -2.0214324 1.1825314 1.7150926e-38
-1.3253224 -2.022891 1.1759547 1.8162554e-38
-1.281027 -2.0192754 1.1756272 1.7703737e-38
-1.2329741 -2.0279565 1.1788508 1.5395263e-38
-1.1804209 -2.0233049 1.1923116 1.7146954e-38
-1.1260993 -2.0357757 1.1822336 1.5584685e-38
-1.0862393 -2.0376904 1.173485 2.1018087e-38
-1.0289214 -2.0410581 1.1800133 2.0092554e-38
-0.922382 -2.045629 1.16539 2.0651465e-38
-0.85315228 -2.0472708 1.151973 2.1941478e-38
3.6904798 -2.0123727 1.1797574 2.2108874e-39
3.8803227 -2.0321205 1.1687951 6.2580938e-39
3.9360027 -2.0354195 1.1876442 7.1778865e-39
3.983839 -2.021883 1.1836631 3.4047391e-39
4.0194712 -2.032176 1.1704041 7.2693661e-39
4.072782 -2.0256758 1.1863174 6.9005822e-39
-2.8314481 -1.9534062 1.1517634 2.1108485e-38
-2.7225571 -1.9551505 1.1706971 1.6029051e-38
-2.6758373 -1.9559579 1.1868299 1.4005436e-38
-2.6270216 -1.9589297 1.1849923 1.3911086e-38
-2.5751362 -1.9632591 1.1648064 1.4927387e-38
-2.5216408 -1.9682577 1.1895006 1.2160446e-38
-2.4697132 -1.9739056 1.1817074 1.2438823e-38
-2.4135737 -1.9663393 1.1805265 1.1424684e-38
-2.3786612 -1.9736997 1.1619889 1.2529588e-38
-2.3204601 -1.9802806 1.1648556 1.1055904e-38
-2.2602329 -1.9703538 1.1556134 1.0684251e-38
-2.2364583 -1.9846141 1.1510803 1.0961908e-38
-2.1720779 -1.9849236 1.1549947 9.3027791e-39
-2.1129422 -1.9923899 1.1505095 8.9386573e-39
-1.9247208 -1.9709647 1.1892591 1.5861629e-38
-1.8768935 -1.9730425 1.1758664 1.4201755e-38
-1.8148263 -1.9740143 1.1893717 1.7977435e-38
-1.7594333 -1.994799 1.1709075 1.6782874e-38
-1.7311997 -1.9834015 1.1653767 1.8071787e-38
-1.4109643 -1.9900378 1.1794729 1.5955626e-38
-1.3713262 -1.9950002 1.1996275 1.7884519e-38
-1.3477035 -1.9972391 1.1770132 1.7978518e-38
-1.2237837 -1.9981387 1.1870952 1.8161106e-38
3.6900587 -1.9829061 1.1650965 3.8614096e-39
3.7326915 -1.9614277 1.1631649 8.1887945e-39
3.825793 -1.9779817 1.1833907 9.0188984e-39
3.8739173 -1.966915 1.1824743 9.3869691e-39
3.9221475 -1.9771247 1.1705672 8.5590091e-39
3.9772363 -1.9754896 1.1859461 8.190235e-39
4.0365167 -1.9763778 1.1807461 7.7296142e-39
-3.0718524 -1.9405781 1.177852 1.6854542e-38
-3.0212781 -1.9061147 1.1794914 2.0002102e-38
-2.9741642 -1.9226755 1.1636666 1.9355679e-38
-2.9242854 -1.9240705 1.1657847 2.027582e-38
-2.8746221 -1.9232376 1.179352 1.8246782e-38
-2.8138137 -1.9309795 1.1734425 1.6770572e-38
-2.7804813 -1.9324417 1.1719289 1.6398543e-38
-2.7070496 -1.9184622 1.1700572 1.3640953e-38
-2.6656294 -1.9336749 1.1673433 1.4650077e-38
-2.6376915 -1.9142063 1.1918609 1.3081651e-38
-2.5801156 -1.9308876 1.1699829 1.3452974e-38
-2.5300288 -1.9326397 1.1672304 1.2716128e-38
-2.4780967 -1.9280547 1.1782874 1.1055541e-38
-2.4306736 -1.9327685 1.1754544 1.0872948e-38
-2.3742328 -1.9356523 1.1779653 9.2116569e-39
-2.1876061 -1.9469347 1.1878771 1.2348442e-38
-2.0788474 -1.9251112 1.1904154 1.5585404e-38
-2.0391817 -1.9177319 1.1993493 1.7424262e-38
-1.9538717 -1.921641 1.1892114 1.7790176e-38
-1.9200362 -1.9477592 1.1735598 1.6326915e-38
-1.7747192 -1.9469383 1.1774282 1.7792326e-38
-1.6304212 -1.9364874 1.1961973 1.7423549e-38
3.6133292 -1.9220526 1.1526679 2.2998489e-39
3.6837265 -1.9338571 1.1646436 5.7949675e-39
3.7316253 -1.9093751 1.1781523 8.557214e-39
3.8681355 -1.9247582 1.1511381 9.6639245e-39
3.9165206 -1.9226434 1.1871991 8.7441192e-39
3.9816575 -1.9313978 1.1878332 7.7317764e-39
4.0323467 -1.9279585 1.1767499 8.0987596e-39
4.074791 -1.9420761 1.1755919 7.3615505e-39
4.1900187 -1.9434438 1.1773977 7.4537532e-39
-3.0864918 -1.8988945 1.1829288 1.6772385e-38
-3.036695 -1.8857948 1.1837525 1.9541146e-38
-2.977932 -1.8907547 1.1808043 1.8525892e-38
-2.912595 -1.8977323 1.1731801 1.8432218e-38
-2.5125058 -1.866786 1.1911802 1.1798873e-38
-2.2233758 -1.8974077 1.1548041 1.4005084e-38
3.6480298 -1.8884308 1.1656522 6.9023913e-39
3.6918263 -1.8717039 1.1683357 7.2682899e-39
3.7875304 -1.8704131 1.1649507 9.1111011e-39
3.8688765 -1.8647535 1.1734425 9.1118073e-39
3.9212003 -1.8870747 1.1819708 8.9285147e-39
